# 3D point list with one line of data per point:
#   POINT3D_ID, X, Y, Z, R, G, B, ERROR, TRACK[] as (IMAGE_ID, POINT2D_IDX)
# Number of points: 385, mean track length: 5.1486346353266503
2006 -0.021625662952518984 1.0720554561463802 2.687685222602525 19 24 34 0.28509949733059858 30 275 36 286 90 251 83 646 79 306 13 111 3 95 27 241 85 379 50 219 67 264
2007 0.74670023472428015 1.5246144382737361 2.5524362312559461 35 36 46 0.067699194072021837 30 285 36 293 90 324
2008 -0.037457936645063888 0.45663682824244134 3.4093809693194186 195 186 159 0.20615507205559572 30 321 97 497 36 320
2009 -0.09761400154146431 1.0641248301994326 2.7570194040134766 56 65 87 0.11518363890103855 51 395 36 325
2010 0.83029284114782875 1.8544269807512059 2.3298923192620924 225 211 174 0.51713514463012322 30 693 36 344 90 398
2011 1.0090436501946087 1.8732690440048529 2.3827282065372577 38 27 21 0.40614873798153139 30 342 36 345 90 403 98 468 83 474
2012 -0.096312074089069305 1.0997432610424593 2.8170144360676654 58 68 93 0.13786607449501834 30 355 36 354
2013 -0.038672437784715387 1.1329847591170226 2.8192062877625719 62 69 93 0.10354959151845801 30 356 36 356
2014 -0.083545702192835719 1.112635318949307 2.8537684600767124 54 62 84 0.045164471156721279 51 480 36 379 90 372
2015 0.16062704146880705 1.363409283073505 2.8425821636923567 4 5 6 0.46777097759782843 97 1051 36 398 90 468
2016 -0.0033007865131115238 1.4675304483263834 2.7460958962538671 73 52 41 0.2320928604995264 30 418 36 433 90 504
2018 -0.47382817776296732 1.1369563862910794 3.0973622393974893 96 99 91 0.17087621354532215 30 472 36 474 90 527 51 585 98 521
2019 -0.03440644423789533 0.43195055293526446 2.1047046128923959 255 236 77 0.16813139769533203 30 517 36 521
2020 0.6514672735926671 0.90290726247706965 2.2200110765786332 169 139 49 0.40401701157590336 95 1039 36 547 29 486
2021 1.130047980996767 1.185797961616081 2.0283600810115558 238 171 110 0.56199830299754716 51 904 97 151 36 549 90 820 98 1037 91 831
2022 1.1053633148620476 1.2196670289667289 2.0934882718357937 165 140 119 0.40520347800390005 30 798 36 558 85 201 27 219
2023 0.17115011099175395 0.70565388741207591 2.4599923026184198 254 220 73 0.34533987691329243 30 799 36 561 90 824 98 1031 9 1258 91 1054
2024 0.99162230754711589 1.2319384602826851 2.2927863840797298 83 50 9 0.065538376503870094 30 577 36 580
2025 0.98003323011310073 1.234970035287736 2.337142127105662 112 91 23 0.089676936583458211 30 579 36 582 27 398 85 357
2026 0.32697640526530597 0.2520695467352978 3.4361629728804584 56 39 29 0.42294469119615546 30 617 36 615 48 434 81 446 2 457
2027 0.7010336591918237 1.4433075948692635 2.4339338458310267 57 68 93 0.098079864655791035 30 624 36 621 90 652
2028 0.69235834472567204 1.4472090138199434 2.4285417976312975 57 68 93 0.14209566095883852 51 754 36 622
2029 0.24238739189642106 1.1999504369909288 2.6147220606069244 79 62 14 0.37731642891208333 30 633 36 632 13 509
2030 -0.08779545688883536 1.0489577661636582 2.7011196417266232 26 29 38 0.15009237068796916 30 645 36 644 90 676
2031 0.24250671606392338 1.1689434647862211 2.706504288654572 46 32 3 0.074645586278229564 30 647 36 647 90 679
2032 0.32703684995537746 1.1884655837630864 2.6999462973687121 51 34 4 0.008347482713693866 30 648 36 648
2033 1.2406574337606933 1.8696180684070665 2.4100487208381023 112 94 79 0.15621858619410314 30 863 36 659 90 913
2034 -0.14922288854678487 1.0538577522170287 2.7790275764775054 19 24 35 0.18414168167597894 30 322 36 671
2035 0.56774959284649418 1.2295970175159292 2.8588034401791291 48 37 26 0.063310977658361633 30 680 36 678
2036 1.0128311272835617 1.9454073155272398 2.3136252938558606 113 83 70 0.43227402549446881 30 864 95 883 36 684
2037 0.18190469516075844 1.2312220583304767 2.8224484476763516 58 53 46 1.0803175102332201 30 870 36 687 58 547
2038 0.26244068413273458 1.243253272320084 2.767701032407015 43 35 27 0.58222123410128335 30 703 36 688 98 679 13 536
2039 0.42102406089900901 1.3409466081165655 2.7466696171880582 4 3 3 0.84964647474270427 30 704 36 690 49 188
2040 0.81034891521052033 1.6916998625440793 2.566014669881779 212 198 163 1.0626964629475064 30 706 36 692 90 930 91 1137 83 942 13 807 49 663
2041 -0.20718967442230432 0.73142297332711081 3.2792092926958274 79 81 74 1.3446150091054423 97 840 36 704 83 833 98 858 29 883
2042 -0.25496135585266583 1.1308663931238587 2.8827332828002792 68 70 66 1.7645146544087733 51 1016 36 705 83 1049 46 1510
2044 0.63628228620611649 0.91774840470164665 1.9821642824197097 132 83 11 0.5538038974319941 30 534 36 766 29 778 33 392 77 59 58 63 81 353 48 358 2 58
2045 0.64861867060777545 1.2618143466522096 1.6892924065175035 0 0 0 0.73049371824727016 30 69 36 769
2047 0.35589474317019731 0.96195820551467581 2.2827745308847422 250 208 57 0.41005886595300295 30 802 36 792 90 1014 83 1014 91 828 77 329 58 87
2048 0.74944370598187071 1.126497337487617 2.3775880695220168 54 49 54 0.56064388848406976 30 819 36 813 90 619
2050 0.84477517977198013 1.2785436622402011 2.3669922941101098 6 4 3 0.97556665462693348 30 982 36 820 77 638 58 610
2051 1.5247352165864343 1.6281012150441885 2.4202346665956123 231 217 180 0.87426663546625372 51 1112 36 826 90 1039 91 895 79 400
2053 0.80933586716073791 1.5722127662865888 2.5477449332048474 7 7 6 0.17569391737828352 30 860 36 846 77 389 58 390
2054 -0.044948314733052115 1.0939984257091662 2.7564898129084128 55 66 93 0.18559157142331092 30 855 36 855 90 884 51 993 98 864 83 838 91 876 79 529 13 508 27 417 85 381 50 402 67 426
2055 0.35892669568366459 1.4828080996062225 2.7133871657090127 3 4 6 0.61904690996209566 30 882 36 874 90 924 13 578
2057 1.1823241627217937 1.2618323681678296 1.2391379083295677 150 115 30 0.5081659602843851 30 927 36 905 27 555 85 499 50 526
2058 1.0977521531769652 0.75421873037554987 1.7149058368968066 241 206 74 0.0038116745669898302 30 759 36 909
2059 0.064056403656600869 0.26604977941862601 2.068384564234278 2 0 0 1.0722225958483975 97 1085 36 912 98 994 83 967
2060 0.31318071132135156 0.29115502638334934 2.085477034053993 0 0 0 0.038287891563771909 30 931 36 914
2061 0.1743170128882191 0.1253247796152582 2.2493736192159068 255 238 79 0.50435332408533684 30 937 36 919
2062 0.87282883463652505 1.0742446913751722 1.9664247103557397 97 75 18 0.56339667852830222 51 1076 36 941 90 1006 98 1025 83 999
2063 0.05362174472128417 0.32722651040033646 2.6728163639220508 129 0 0 0.095542536368438125 30 965 97 1109 36 945
2064 0.81469838736121258 1.1255486602841844 2.0931108717344218 106 87 23 0.59094483444482437 30 967 51 1178 36 946
2066 0.30078614948990801 0.79761063377281116 2.4354532788924623 55 32 3 0.070307181485813816 30 970 36 951 90 1103
2067 1.0183623781373741 1.2855973112399235 2.4111435288213445 118 95 24 1.2362927021426819 30 978 36 958 90 1108 95 1345
2068 0.24289853668946385 1.0560780725592673 2.4728640191318196 110 99 29 0.33231035088776845 30 980 36 959 90 1030 98 1148 83 1030 79 649 77 636 58 612 13 893 3 787 27 587 85 524 50 479 67 507
2069 0.50756768004951669 1.2978395731001291 2.552868736922437 77 64 17 0.56593178951643175 30 990 36 972 90 1041 98 846 91 877 77 722 58 697
2070 0.3277537938027027 1.1441227147159008 2.7172024678282467 80 64 15 0.31315521100529581 30 996 36 978
2071 0.51585417080515861 1.320350318125906 2.6149233434234196 78 68 17 0.033921796604678804 30 997 36 979 90 1049
2075 0.31068584773605751 1.0818335564398818 2.445242769669135 106 96 28 0.45782037209690984 30 1044 36 1021 98 1149 79 776
2076 0.63085415188221394 1.3858353721749332 2.430124901421586 40 48 68 0.30633503757024444 30 1048 36 1022 90 1111 98 1222 83 1196 91 1193
2078 -0.12383696123219878 1.0480029510922824 2.7397928631964348 53 59 80 0.14357000471542863 30 1055 36 1026
2080 -0.52097350908097984 1.2269098808923029 3.0668105765172871 95 65 49 1.4959630463926741 30 1075 36 1040 98 1112 29 1108 77 759 58 757
2081 1.5043873061166662 0.39997828425606463 1.4322600965724179 162 138 49 0.87875503752096407 30 1082 36 1046 77 467 27 684
2084 -0.25947958806178006 1.0587813778023434 2.8835321697952563 82 85 80 1.4094101194620894 30 1067 36 1078 90 1175 51 1275 83 1198
2085 0.057326432784015183 0.40728514789503284 2.2537334843771295 0 0 0 1.5712761046476729 30 1121 36 1091 83 1209
2086 -0.033739653389224127 0.33894585884381012 2.49714837858461 123 103 28 0.51427822191802497 30 1122 51 1176 36 1096
2087 -0.16247403968000046 0.90492471378022454 2.9309130790704812 77 77 68 1.0838651515310935 30 1109 36 1107 90 1197
2088 0.89939200340676739 0.79897138250746369 1.4919117585632153 126 103 38 1.0531652572219183 30 1135 97 1319 36 1114
2089 0.19776446154230182 0.65990950067696907 2.4687714651296115 242 198 62 0.34220178823908542 51 1285 36 1119 90 1210 98 1257 83 1235
2090 0.99810933181530948 1.1005299025600008 1.3854162531509799 125 109 29 0.49030330733026833 30 1143 36 1124 90 1205
2091 0.29624827640443335 0.68145597048015838 1.9469802103671507 0 0 0 1.6160762178604973 36 1136 77 806
2092 -0.058405983632132112 0.2633216627367273 2.6161593020552645 0 0 0 0.72369125550863866 30 1152 97 1332 36 1137
2093 0.16346740386949293 0.47890641105427517 2.2825970316538493 22 17 6 2.1644842900060595 30 1160 36 1142 90 1240 98 1284 83 1257 91 1302
2098 0.27005568798687313 0.51510928369751974 2.4517426584285826 29 25 26 1.125616590511362 30 1181 36 1163 90 1260
2099 0.27005568798687268 0.51510928369751985 2.4517426584285826 29 25 26 1.1256165905113458 30 1182 36 1164 90 1261
2100 0.64819594650827317 1.4640587362620707 2.5506901517224243 61 69 92 0.3852317283681238 97 783 30 651 36 842 41 850 17 868 51 973 46 865 90 876 98 881 79 384 49 216 3 469 27 295 85 266 50 417 67 440
2101 -0.31081763943023522 1.3375835366824336 2.9277289309676511 56 40 34 0.21846519506810733 51 586 30 478 36 481 55 637 41 502 17 578 95 603 97 586 90 532 77 230 58 256
2102 0.19115452716262277 0.6041481034351911 2.0052623597338957 244 208 84 0.79473616443179829 51 626 30 524 36 527 41 1380 17 1262 95 1211 97 929 90 560 46 1235
2103 0.72450332378343163 1.6788729438319934 2.5424297117587273 108 102 84 2.0668912206645613 36 1031 17 1338 95 1276 97 1020 90 927 98 1083 83 1055 91 1136 30 1060 29 1092 77 754 58 746 81 872 2 796 33 620
2104 0.8677221199902414 1.0828564377628007 1.8043271561544563 147 109 44 0.082527491067601919 30 68 36 76
2105 1.2965247887023288 1.6482353338568903 2.486759762898191 235 218 180 0.31639744713530493 30 224 36 240
2106 0.99726108110100453 1.1241398758245724 1.6506417319054594 20 25 37 0.30833848606203718 51 47 90 45 98 34 83 542 91 581
2107 0.87120226942335099 1.0717142882880286 2.0085846074129812 152 107 37 0.20709506694392477 51 71 90 63 98 50
2108 0.80193747370826651 1.0991755873606743 2.0906326040620433 109 87 22 0.25604160647693092 36 94 90 72 98 60
2109 1.0896475828823475 1.1846259129740861 2.0306095523444561 3 3 4 0.19994421591552677 51 74 90 73 98 596 83 568 91 611 9 789 79 271 27 214
2110 1.8706939596969074 1.0828110846151293 2.6837726234873194 47 28 17 0.094165863539393102 51 104 90 108 83 105
2111 1.9364279074772384 1.1082501348711424 2.6595504804303522 52 34 23 0.23545724337432258 51 105 90 109 98 94 83 106 79 98 91 633
2112 1.9566157701728817 1.2020965727863893 2.5997366659963403 110 97 73 0.12687969689401415 51 108 90 112 83 610
2113 0.78812980447000014 1.1353235960223464 2.4287310086810932 12 16 26 0.067153058407225019 51 159 90 117 98 102 83 99
2114 0.78852112694179666 1.1348432208313723 2.4293088275740939 12 16 26 0.028125695251263249 36 147 90 118 98 103
2115 1.08106999677653 1.2812381280827141 2.3101696058404855 72 76 94 0.087265780059936682 36 141 51 130 90 119
2116 0.063194120955583952 0.87632467323763097 2.7162846806011109 97 86 24 0.91473137271500615 51 732 90 156 34 260
2117 0.050735624414769788 1.1370387322919118 2.7253327822357845 19 22 29 0.18077496716035171 51 400 90 253 98 208 83 193 91 174 9 403 79 317 13 120 27 264 85 384 50 232 67 270
2118 -0.099657974605737804 1.078087552114942 2.819622890293084 28 26 12 0.19160611551957149 30 700 90 315 98 203 83 188 91 170
2119 0.018538397534203038 1.1426523700646103 2.7617895033195872 29 26 8 0.1400117614947381 51 442 90 320 98 210 83 196
2120 0.13750909328548569 1.2615282828515233 2.7645004910632611 48 45 39 0.54042505282529174 36 360 90 379
2121 1.3897917722487416 2.0642296890471759 2.2118279876458224 85 59 50 0.074906706994121317 51 425 90 408 98 473 83 438
2122 0.0054503872076542281 1.1680118574694689 2.8857314160521739 26 29 41 0.082567977073026738 30 372 90 429 98 372 83 339
2123 0.94422103697706739 1.9068387235421573 2.3516160886034054 110 79 68 0.068881890938990234 51 488 90 435 98 503
2125 1.1832109383498843 2.0359127382969993 2.2642811561107812 114 84 71 0.25865280849647132 51 465 90 444 98 511 83 482 79 208
2126 -0.15406873122584824 1.0391196758390755 3.0814134858295272 108 109 101 0.036995390786602078 51 517 90 461
2127 -0.29355904710121977 1.1477632047073039 3.0589479261695507 82 83 74 0.11259980222375758 51 578 90 492 98 495 83 461
2128 0.026423108989198901 1.4247149776917556 2.7940047772062897 21 15 13 0.1957195273810429 51 826 90 501 98 537 83 467 91 477
2129 -0.46043557066715712 1.1493521859252118 3.0838424842650185 96 96 85 0.13890260425026446 51 842 90 528 83 453
2130 -0.56598374615991554 1.2560419974051318 3.0389450956367585 50 34 27 0.11231622176780169 51 591 90 533 83 498
2131 -0.56598374615991554 1.2560419974051318 3.0389450956367585 50 34 27 0.11231622176780169 51 592 90 534 83 499
2133 0.58484638508715892 1.0538938722593005 1.9544433986177427 91 109 146 0.18774690058016585 51 903 90 579 98 49
2134 1.0506142216116539 1.212708236499064 2.1631622204384056 115 95 25 0.18856080163904398 51 82 90 596 83 584
2135 1.2964892935949559 1.4739930589018169 2.5858011761727977 109 97 75 0.010239713430320301 51 734 90 654
2136 0.42612441749685909 1.2588421252009652 2.6267502589315002 56 37 4 0.09098205246447362 36 635 90 683 98 660
2137 -0.13393694276713045 1.0455914895992715 2.7963387466719984 19 22 32 0.20109686149031233 51 802 90 708 98 202 83 185 9 397 27 257 85 244
2138 -0.13449407602777702 1.0461498182581614 2.7944804606156133 19 22 32 0.20577004655266851 36 672 90 709 98 201 83 184 91 167 9 396 79 82 27 256 85 243 50 227 67 93
2139 1.2903614399586116 1.9806054472366375 2.2654618720517266 233 217 179 0.099893379984249187 51 986 90 736 98 958
2140 1.3982969849098503 1.4099032375816665 1.3440486637021278 248 206 66 0.36378450521950217 30 763 90 789 98 771 83 746 91 1033
2143 -0.15067431863243733 0.67888490528962386 2.4024636988809358 74 91 127 0.29468625273221294 51 917 90 823 98 791 83 761 91 805 9 1005 79 467
2144 1.0699982130814183 1.4077553670574183 2.4253706773293131 236 214 172 1.1227197963649751 51 945 90 855 98 1063 83 1038
2145 -0.12601517107723131 1.0703844355109298 2.8254127795368906 58 64 85 0.32445447700598939 30 701 90 881 83 659 91 678 9 826 79 527
2147 -0.25204829145767232 0.89071374469328668 3.1997274641089364 122 124 116 0.24629267368957938 30 898 90 918 98 912 83 859
2148 -0.1230415142285186 1.1278453767164265 2.9402383624044792 2 2 3 0.16572393022240375 51 1017 90 922 98 921 83 898 91 896 9 1152
2149 1.2073573720284894 2.0547696352716831 2.2587208734540818 106 76 65 0.48571587264892269 51 1001 90 932 98 1095 83 1070 49 1088
2150 1.2069961520242911 2.0528563604821897 2.2593211187645252 106 76 65 0.55622691043314809 51 1000 90 933 49 1087
2151 -0.062080023145789948 1.3450345411072624 2.842193840892846 73 53 43 0.21534755583274651 36 891 51 1143 90 954 83 954
2152 1.4260331920745426 0.48579558576527798 1.3517750899515064 0 0 0 1.7224524410685145 41 1356 90 962 29 1032 36 992
2153 1.4940846659241476 0.55098506453833718 1.4165993000366239 244 241 78 1.9156561326812191 64 970 90 966
2154 -0.20148394587280671 0.26597332046604633 2.1854461237725307 0 0 0 1.5691977674164428 46 1587 90 985 98 1201 19 720
2155 0.86220926340022275 1.0790881249171675 1.9561817367174079 99 79 20 0.30601903339885139 51 1075 90 1005 98 1024 83 1000
2157 0.59502036510537026 1.1825167950805868 2.2256722669996285 12 11 13 0.12068984584428936 51 1101 90 1019 98 1049 83 1024 91 1074
2159 0.96745738639002343 1.3984624589157169 2.4066043789550235 234 212 171 0.91058565082952447 51 716 90 1034 98 1062 83 1037 91 1189
2160 0.90707693252480448 1.4998576903682541 2.354985254302735 233 211 170 0.59983989436183704 90 1037 98 1065
2161 1.2201048532804517 1.4521698872524889 2.5923182453569917 112 99 75 0.3698879261522951 51 245 90 1043
2162 1.7717144434284511 1.9906472290947113 2.1101565232701809 0 0 0 1.8850323862255352 55 1396 90 1045 83 1140
2163 1.1275518680301932 1.2212473655258138 1.2031268407561617 163 130 33 0.76425511950234015 51 1155 90 1074 27 479 85 427 50 441
2164 1.3927696978422655 1.4513827698406248 1.2894812110368779 253 217 70 0.17458348633187903 51 1161 90 1078
2165 0.81433491177563655 0.55539961172161911 2.2235694602798959 0 0 0 0.71884979942267813 51 1165 90 1082 98 1129 46 1458 83 978
2166 0.80301115704509263 0.76871710949936467 2.0542205589504809 199 174 66 1.9885271410091017 51 1232 90 1088 98 1205 83 1184
2167 1.1534031160670382 1.1423197894541988 1.9941735487885626 0 0 0 0.54174614858303027 51 1086 90 1095 98 1028 83 1116
2168 0.29329109939287923 0.80299390876922994 2.429291436664716 52 33 4 0.29510360542577041 51 1237 90 1102 98 1141 83 1011 91 1060
2169 0.76722130169264946 1.4542727752179392 2.373819784430494 46 51 71 0.28254895297974403 51 1188 90 1112 98 1223 83 1197
2170 1.6136294789356607 2.2586081741108543 2.1034341175658313 85 59 47 0.43248523476884776 51 1201 90 1124 98 1168 83 1151 79 758 27 618 50 586 67 615
2171 -0.13805975366621898 1.5243226941305117 2.8734454566837249 0 0 0 1.1916511413448674 36 1043 90 1148 33 803 48 739
2172 0.96878163703241815 0.70616519756335661 2.0688312511357423 0 0 0 2.2391540544260238 17 1461 36 1004 90 1158
2173 0.67916992952012822 1.1024877909810362 2.1458728984331628 103 90 26 0.89557779972481866 51 1263 90 1166 98 1216
2174 1.1697028709597979 1.2413003110117 2.0711684178251457 0 0 0 1.290052753435418 51 1179 90 1167 98 1144 83 1121 91 1252
2175 -0.35872249543573065 0.82968010566332107 3.2174877858971582 0 0 0 1.8263511637573311 46 1503 64 1235 98 1072 34 1144 43 1033 53 1067
2176 -0.012129716900638706 1.3877667416773036 2.8196367379406047 71 49 40 0.66123500456971074 83 1201 77 731 58 708
2177 0.057175397273535142 0.099003060566315207 2.2424513415531848 0 0 0 1.6919896381204924 36 1050 51 1252 90 1185 98 1232 83 1228 91 1260 33 832 2 777
2178 0.28332437569930918 0.35633064062435366 2.5946999398937756 201 145 33 0.77356240581815006 51 1234 90 1189 98 1209 83 1109
2179 1.2069276946725442 1.3201400758734223 2.3182026899018515 135 122 98 1.9044875046678438 51 1286 90 1192 98 1240 83 1218 91 1307
2181 0.68904103551576779 0.79381776701969553 2.3012982790290724 165 137 59 0.66447920747935474 36 1097 90 1209 98 1276 83 1247
2182 -0.099086089386132878 0.9304473907938805 2.7957831149756451 13 14 16 1.2910124640296656 51 1298 90 1217 98 1264 83 1238
2183 0.78052609675244511 0.63606022459796396 2.2689622120881863 0 0 0 1.1430375581005279 46 1618 90 1224 98 1274 83 1245 91 1290 46 1605 9 1570 27 678 85 625
2184 0.91792354227418482 1.3126362221067074 2.4715294835990154 8 7 7 0.80330200114649486 51 1297 90 1229 98 1277 83 1249 79 843
2186 1.3699722269844765 0.58028588254103575 1.4381908332525322 148 128 44 0.50741311608501105 51 1308 90 1248
2187 1.2459601216616021 1.3154728058993632 1.7969033315892964 0 0 0 1.8194553291430104 97 1352 83 1279 91 1331
2188 1.3129890163771427 2.1012080376205531 2.5986191204752136 0 0 0 1.7311521115975792 30 1176 36 1158 79 867 77 832 58 825 13 1086 83 1280
2189 0.79508247584710889 1.5739964995572817 2.5465992864811451 5 5 5 0.77917294253275327 30 859 36 845 90 718 7 421 55 861 46 883
2192 -0.19467109310771111 0.39263788118677678 2.1881576618252994 101 85 20 0.92021239873712901 7 653 46 971 90 564 55 1207 64 1052 17 1275 95 1222 41 1392 51 887 98 565 83 528 91 552 9 731 29 1066 88 513
2193 0.96450506082814125 0.99237499143885155 1.3190420413467252 124 105 36 0.91724851920317396 17 1240 95 1187 97 1079 90 764 30 489 36 16
2194 1.4306037028117318 1.4684080480766462 2.5398771083733287 236 218 177 0.62080931605062872 41 1043 17 1043 30 612 90 862 94 907 87 1023 40 921 93 813 7 1011 55 1230 46 1288 98 836 83 831 91 880 9 1318 70 630 42 497
2195 1.0727510383415919 1.1081187731501869 1.6260973120055517 93 72 17 1.0978022481108427 97 628 30 767 90 991 95 1203 83 979 91 1032 46 976 9 1244 98 1007 79 701 27 566 85 439
2196 0.53382766672655813 1.5249918945506968 2.694936780908439 3 4 4 0.42759196597671234 30 1004 36 985 90 1054 46 1385 51 1011 83 1054 91 1123 79 575
2198 0.98547792479824359 1.1692825434827252 2.2316955375386187 85 53 6 0.10957606108978064 46 246 98 81 83 83
2199 1.1074044154759626 1.200159662652782 2.1716626331083129 6 6 7 0.79489057996703227 90 88 98 83 91 843
2200 -0.014019923375824092 0.87663661850452024 2.4308135631455663 99 74 22 0.43987244530663794 46 337 98 88 83 589 9 171 79 45 13 71 3 65
2201 2.4300275192595904 1.0943876780377293 2.7225286443028014 72 47 32 1.8901309059353284 90 100 98 97 83 93 91 131 9 212
2202 -0.029558693496937388 0.84955818350715029 2.7180065213862576 26 17 9 0.330230330612308 46 399 90 155 98 110 83 108
2203 1.1066750410819248 1.2863007078078206 2.4431178456179103 117 86 22 0.24971039884796439 90 134 98 113 83 113
2205 -0.11172695062355636 1.0028239647603683 2.7757566407659833 47 49 63 0.53142867612417855 90 250 98 163 83 644
2206 1.170698288062934 1.3840884679544903 2.6350933995915904 226 205 163 0.11599807685103812 55 291 98 170 83 157 46 402
2207 -0.012868886355423647 1.1070555774820048 2.7466263407185418 21 25 36 0.11050789651134357 46 512 98 205 83 191 91 171 9 402 79 110
2208 3.8678364845834765 0.97846766214975378 4.3364068552520383 125 115 93 0.93100308095186546 46 182 98 253
2209 -0.0031788907070324102 1.139097761968846 2.8138856526359306 22 25 36 0.074185205942475407 46 555 98 287 83 261 91 222
2210 0.68589305072399509 1.4922345177514349 2.5776040221817289 33 32 40 7.2530826380208009e-05 90 323 98 297
2211 0.8751468782314894 1.6658316165944449 2.5623362711990092 207 191 155 0.087922516915216284 90 383 98 454 83 414 91 410
2212 1.0206745452764165 1.8456193049098337 2.399960617457026 222 206 169 0.0068004351733063559 90 402 98 467 83 689
2214 1.116137368914297 2.0099598970288821 2.2819006129238004 108 78 67 0.061560973332782924 90 441 98 508 83 480
2216 1.2421671879292149 2.0421552776317067 2.2640590950885668 105 75 64 0.13985124294131582 17 443 98 514 83 483 91 521 9 937
2217 1.6366029495925851 2.3143518373641232 2.0666284538838302 24 0 0 0.23777075436431963 36 319 98 518 79 437 67 467
2218 0.01123475038268066 1.4624666360122851 2.7635462357648493 74 54 43 0.25920380297794721 90 503 98 538 83 493 91 479 9 898
2219 0.056909781393574235 1.5112654200256239 2.7708223280367394 22 15 15 0.24031780511657677 7 544 98 539 83 494 91 515 9 673 27 164
2220 -0.57423416543212114 1.4440442565674438 2.6599342859669628 169 135 119 0.80357527708001664 90 531 98 544
2221 1.033463789654484 1.1089522225001471 2.0365859526412673 175 132 57 0.10068918091961032 90 64 98 589 83 564
2223 0.11892768591891716 0.8136882094011888 2.4368783190904919 85 89 107 0.7335635486798332 90 598 98 604 83 570 9 1021
2224 0.68497980983597362 1.1104430553046483 2.2299400382391656 49 25 1 0.11528711071670052 90 834 98 609 83 581
2225 0.76114875752976618 1.0640275691731629 2.5167726825243215 52 51 60 0.082573406125414861 90 850 98 631 83 603
2226 0.9913293639945473 1.2268115411545311 2.346752996148461 115 91 22 0.091435453060559599 90 620 98 632 83 605 9 813 91 629
2228 0.49169471290916722 1.2849720723520703 2.6041100595989048 53 34 4 0.066665633784822723 90 651 98 661 83 652
2230 1.3514252049802313 1.5027060607979743 2.5558680099315314 113 101 80 0.043695746127164099 51 251 98 665 83 656
2231 -0.074280296433733864 1.077072832992543 2.7695420808385998 19 23 35 0.14198807943531966 90 711 98 671 83 189 91 168 9 398
2232 -0.07260874989150029 1.0767880622587898 2.7713892914502596 19 23 35 0.30531550272891961 90 710 98 672 27 258 85 246 50 228 3 108
2233 0.78040802889020244 1.6934952762688784 2.5679277310543958 196 184 152 0.20613528652962954 90 431 98 695 83 413 91 721
2234 1.4786067589315302 2.0385987568645758 2.2387737260203338 230 217 180 0.080357449799419681 90 362 98 704 83 695
2235 1.2433378715352066 2.0701954236681162 2.2258358604241923 107 77 67 0.27702700111248874 90 737 98 714 83 713 91 747 9 1203 13 699 49 965 3 315
2236 -0.17668246054797293 1.3907198516066426 2.8142787524781996 105 72 53 0.045235964134048241 90 751 98 724 83 718 91 715
2237 0.99626150977783723 1.1038599438760253 1.2989709098669773 142 123 34 0.40141352939674652 46 962 98 738 83 509
2238 -0.15002668477456255 0.50903262782299075 2.1767327416963536 106 92 27 0.48189924288036845 46 983 98 773 83 743 91 782 9 981 13 435 49 470
2239 -0.1476853293106688 0.50562492216538191 2.1828797746100754 106 92 27 0.6923790226236336 46 982 98 774 83 744 91 783 9 980 13 434 49 469 3 339 27 365 50 326 67 361
2240 0.68960404663326746 1.4149140979688217 2.3715921965264757 53 58 76 0.20911696948004849 90 859 98 829 83 807 91 879
2241 1.9639590372199842 1.7009144887203904 2.3512318650361435 236 218 178 0.51668468723054128 46 1134 98 840 83 819
2243 0.38477305834718439 1.2503782715939962 2.6189183135184981 85 70 16 0.36965667607242297 51 774 98 844 83 823
2244 0.47102785282532927 1.2566381318081752 2.6184736603031729 83 68 16 0.28642458473322757 90 865 98 845 83 824
2246 1.3474260658654402 1.6368502960403328 2.5137628520510154 231 215 176 0.066575533835708772 90 688 98 872 83 881
2247 -0.22025508861338974 0.84143880331276111 3.2082751889118701 130 133 126 0.067599733902180895 90 917 98 878 83 858
2248 1.2283106568218747 1.6758245485722489 2.4982094513043762 230 214 176 0.1337528192690543 46 1322 98 892 83 880
2250 0.73803448057273779 1.6202912962897296 2.5942104801797305 55 48 42 1.1214595632510611 17 1330 46 1364 55 1326 98 951 91 959 95 1274 9 1179 82 902 97 1140 41 1304 26 999 60 1006 48 659
2251 0.88223771496452508 1.7215320408988983 2.5487266566224123 215 199 162 0.17213578427267276 90 931 98 956 83 943
2252 0.93232090165847648 1.7565363703225025 2.5119473958771801 219 203 167 0.29176788465889159 51 996 98 957 83 944
2253 1.5922398170726211 2.1220164220570439 2.131135690912954 232 218 181 0.76945632203207892 90 728 98 960 83 947 27 330
2254 -0.33695620812218813 1.1437018552334384 3.082285180386342 148 152 145 0.050800512423261224 51 1028 98 969 83 952
2255 0.081617628247891094 1.4558057176204104 2.7712339811633897 27 21 19 0.38010153812795039 90 955 98 983 83 956 91 985 49 869 13 575
2256 1.6219962572702671 2.3148335960163942 2.0969237999740491 89 89 83 0.19028614754219556 95 442 98 985 91 748
2257 -0.20151569843442838 0.46849100584601588 2.2624461563045628 105 93 31 0.76771938152206831 90 1089 98 1010 83 982 91 781 9 987 79 617 49 774 27 489 50 460 67 364
2258 0.15162959260901782 0.64449558946816921 2.0780948575410334 107 94 28 0.68430464082162767 90 1084 98 1012 91 1024 79 619 27 490 50 328 67 362
2259 0.62313774664284671 0.99959965798100303 1.9652792720927674 97 89 29 0.10444501416564626 90 1004 98 1023 83 997
2260 0.022223397348463361 1.4916546886367559 2.7495692514749956 64 42 32 0.29082243086596649 90 1066 98 1099 83 1075 91 1133 49 1058
2261 -0.2642496574187852 1.3431640987251501 2.928717654055895 112 74 51 0.35715311861808713 90 1068 98 1104 83 1074 91 1132 79 573
2262 0.3206992993479173 0.25230445931027667 2.1501860310492042 253 211 56 0.44977682576587608 90 1076 98 1122 83 1097 91 1157 9 1444 46 1447
2263 1.2999577609777355 1.3944772934442411 1.4153608095113193 105 91 26 1.2195891192640234 90 1080 98 1132 91 1043 79 702 13 870 49 1015
2264 0.89167751562002606 1.4511010270910398 2.4175211122252351 23 19 16 1.8817500597328376 90 1113 98 1152 83 1131 79 740 50 635 67 687
2265 -0.11347748427062386 1.0392167578835785 2.7494434726983403 44 52 73 0.52053968737222778 90 1117 98 1154 83 1133 91 1187 9 1297
2266 0.69609015287857434 1.4628552508283728 2.456395112786443 55 62 82 0.12884758749006234 90 1116 98 1158 83 1137 91 1196 9 1482
2267 0.73319149966520913 1.513281879038316 2.5868464361243366 42 47 63 0.99986647429667719 90 1122 98 1161 83 1142 91 1200 9 1487 79 793 13 1022 49 1195 18 1131
2269 -0.26490659006496853 1.1901460078440258 3.0164503094216024 144 148 143 1.0869520985246091 46 1517 98 1165 83 1150 79 678
2271 0.66653166091767568 2.3831282533392124 1.6517834793486776 0 0 0 2.1645327129528082 90 1131 98 1179
2272 -0.16444200493797168 1.1551893097497983 3.4826419838265541 85 85 80 0.27189000596454393 98 1181 83 1170
2273 0.50582148731505783 1.8225688160467268 2.6289660906231429 0 0 0 0.040275969533836796 55 1344 98 1187
2274 0.20898506178247267 0.3087155462989023 2.6372388109501075 0 0 0 0.38039846107154834 90 1162 98 1208 83 1187 91 1240
2275 -0.25723368552923292 0.38494981849055343 2.2152432237415942 0 0 0 1.5621806772102211 90 1206 98 1253 83 1208 91 1284 9 1545
2276 0.015977634665911105 0.68216026181009004 2.5557591115684835 171 127 31 0.36244652793862714 90 1211 98 1260 83 1248 91 1304 9 1571
2277 0.78570028072369402 0.6336427473770756 2.2739984423536383 0 0 0 0.98739192784593266 90 1225 98 1275 83 1246 91 1289 9 1569 85 626
2278 1.1520125005415429 0.63708336452336534 1.7102297588955024 18 14 15 2.0107540378364313 55 1543 98 1283 83 1256 79 846 50 656 67 684
2279 0.40316658290712593 0.94961072991718376 2.2500298672702077 143 94 15 1.1303995960981699 90 1241 98 1287 83 1262 91 1314 79 840 13 1051 49 1228 27 687
2280 -0.03769247964962278 0.93705321036991329 2.7500875420344468 24 18 8 1.2768870050430874 90 1252 98 1294 83 1270 91 1316 9 1595
2281 1.2266534832386067 2.1715927767886569 2.5329158411856652 0 0 0 1.7488346435507975 46 1642 97 1354 91 1332 48 840
2282 1.1299850453523057 2.0065427878899245 2.289953617641542 102 70 55 0.47365437348374723 7 933 55 1130 41 842 17 872 95 507 51 461 90 440 98 507 94 618 87 901 40 801 24 676 93 671 7 781 26 561 60 561 46 920 55 871 83 479 91 733 9 933 49 736 18 912 70 534 99 471 75 429
2284 0.06278875730041393 0.41211286392398055 2.1481915743705606 240 212 60 2.0436535928931461 30 1088 36 1053 98 1202 95 1438 97 1307 51 1257 90 1079 83 1181 91 1235
2285 0.18332256896465673 0.81928509090722146 2.3979423162938494 71 54 10 1.464319654317596 46 1569 41 1520 17 1529 95 1420 17 1506 98 1139 30 969 36 950 90 1101 83 1120 91 1250 79 632
2286 1.9375492092128581 1.9944390063610113 2.2231857116728793 0 0 0 2.0573385037937291 97 1213 98 1163
2288 0.028403685637755877 0.38016648100525413 2.1155995481240808 174 130 41 0.16694750441780673 98 559 83 16 91 11
2290 0.21572375096897037 0.55446106559908048 1.9963652506273408 255 239 77 0.066374839921753678 98 22 83 19 9 69
2291 1.0574873331754107 1.2452274814969042 1.3857881533880103 254 194 52 0.31633470458354818 98 28 83 27 91 41 9 102 49 57 13 23
2292 0.84887311720866887 0.61723237051944224 2.0991491744129434 134 96 20 0.092025145693140409 98 31 83 32 91 39 9 746
2293 -0.17270439626838024 0.69370470447604482 2.4326523122183672 21 21 29 0.091673673967234914 98 64 83 58 9 139 91 69
2295 0.26330219772999786 0.78660449595535675 2.449418194667659 103 83 21 0.10940581305874791 98 72 83 75 91 88
2297 0.76738347391848316 1.0044047704921553 2.5488500484500212 76 76 87 1.651809500779672 51 158 98 100 83 96
2298 0.19537652135393577 1.0132032380515734 2.614874244875578 76 66 16 0.083753946256387837 90 159 98 121 83 116
2299 1.101085489130732 1.2949605965304138 2.4999408994879602 131 98 26 0.095470322844155395 98 127 83 121 27 74
2300 -0.0837382592862599 1.0451787683703544 2.7066359720700581 21 24 33 0.11477099967916465 90 677 83 147 91 661
2301 0.67808081004112564 1.4894852428465284 2.3583794227184902 24 25 32 0.041579897681839555 98 169 83 152
2302 0.35697065024849678 1.9472672788948471 1.6035563326061306 226 208 170 1.3904289699647365 98 178 83 160
2306 0.63714014802459784 1.4304157916909808 2.485925003743954 35 30 15 0.03292110342489591 98 218 83 201 91 233
2307 0.63714014802459784 1.4304157916909808 2.485925003743954 35 30 15 0.03292110342489591 98 217 83 202 91 232
2308 0.69342635131150065 1.4903919563781791 2.4856398683585135 65 70 92 0.036100714099947612 98 220 83 205
2309 0.83291676678835291 1.5264986490947996 2.4315675254290579 49 54 76 0.12613237043114772 98 224 83 212 91 237 9 510 79 130
2310 1.1709394773400847 1.4523631479971642 2.6066241210800958 225 208 168 0.087185673803989783 98 171 83 215
2313 -0.17812408042566369 0.87249121936135166 3.3895129084670121 139 141 133 1.4046096159132377 90 741 83 337 91 265
2314 1.3512215067461131 1.9097965319622752 2.324436186737926 232 217 181 0.028218272481333746 98 407 83 376
2315 0.10016238571190779 1.3299133044666078 2.8835664108324677 4 6 8 0.074388719970221548 98 496 83 410 91 401
2316 0.27478464232571942 1.4190800081734918 2.7966462450613419 5 6 7 0.048551727317572659 98 451 83 411 91 403
2317 0.72815838223781415 1.6311414576829488 2.5905261262567101 11 12 14 0.093151859162708281 98 453 83 412 91 405 9 604
2318 1.1973179485911198 1.8570720763720385 2.4082717379273424 236 220 180 0.15595517441618967 98 470 83 429 91 727
2319 1.3694273525966927 2.0301112867156883 2.2534333935662918 108 76 65 0.21052284754677908 98 472 83 435 91 737
2321 0.99976056348772213 1.0845552785544479 1.2225136873944662 147 127 38 0.44981148782053554 90 765 98 735 83 505
2322 -0.15370013174151595 0.37551728849009303 2.1551619060203708 255 237 74 0.12196259854541423 90 791 98 757 83 520 91 553
2323 0.19741164405344461 0.61017708077634325 1.9955112465768778 253 224 64 0.24514253840344702 98 24 83 532 91 561 9 975
2324 0.20152854267029863 0.60360394320086574 2.0018982324221799 253 224 64 0.17812646002098464 98 25 83 533 91 562
2325 0.76151275243908478 1.064848462010817 1.6690377770440459 19 20 28 0.12999032144767211 98 574 83 540 91 795 9 765
2326 1.2900545312358087 1.3916988913690285 1.3238786204819268 110 95 27 0.46428369591726482 90 555 83 544
2331 0.27123474059371555 1.0474272791653316 2.4478557100820497 92 72 16 0.16941158945417892 98 630 83 601 79 62 13 89
2332 0.40531678104590213 1.0261717155767549 2.4771605515689723 4 3 1 0.79139346697804469 98 99 83 602 91 855 9 808
2333 0.99003263362678906 1.2275219627937477 2.3447884541557436 114 92 23 0.054308585255393761 98 633 83 606 91 630 9 812
2336 0.97594915058216014 1.2527268429361635 2.4108376387202011 110 88 20 0.084162893532604754 98 822 83 614 91 638 79 511 13 758 3 681
2337 0.99032887193938635 1.2656736391936767 2.444756013456296 55 25 1 0.058456313806087394 98 112 83 615 79 296
2339 1.1374124934790661 1.2941386344900083 2.4903962990556252 32 31 36 0.080859944111744006 98 644 83 628 79 524
2340 0.54790312271223451 1.1357375185197454 2.8477540714177598 53 33 3 1.7939419856179519 90 682 83 650 91 682
2341 -0.12845816725879847 1.0735965807739436 2.8227212658240686 60 66 87 0.46249446760501045 30 702 83 660 79 526
2343 -0.21813653743400924 1.7556534728632844 1.801196020287773 41 33 25 1.3606192544230495 98 680 83 672
2345 0.57171650255501527 1.7281357770227626 2.5125608166125595 86 60 47 0.50140700733813037 98 978 83 706 91 991 9 1194 46 1407
2348 0.56064017747426653 0.99881553152869518 1.9872565810345519 100 90 28 0.084841346493564548 98 782 83 755 91 808
2349 -0.15716465348853714 0.89284419900659917 2.8867484380716193 126 125 115 0.44723726075016285 98 1064 83 806 91 863
2350 -0.046971085161044701 1.0615614609406476 2.7008475186789997 51 57 77 0.12398104363214779 98 656 83 820 91 662
2351 -0.30255030076190853 1.0615772728508273 2.8355747281711876 124 126 120 1.3362493021605222 90 901 98 879 83 861 91 874
2352 -0.27778957544426131 0.92456549581049108 3.2261749501901571 138 140 133 1.2270548173171771 98 915 83 895 79 375
2353 1.2036886499558426 1.7276245924202047 2.4874762410257358 229 212 174 0.105372107345995 98 937 83 912 91 968
2354 1.4071767947107439 1.8064143982096064 2.4254950664590056 231 216 178 0.018588756721370697 98 939 83 919
2355 1.0307340103984122 1.7297524873325199 2.5072414632358226 223 207 171 0.093366706151698772 98 933 83 946 91 964
2356 1.3864709443401986 1.4445475084196104 1.2401068871253267 0 0 0 0.03390153122941085 98 1127 83 973
2357 0.18899184314731718 0.67206024071227122 2.0423725837609115 22 19 24 0.31935654676657238 98 1013 83 976 91 1025 79 459 49 784 13 720 3 619 50 329 67 363
2358 1.3274420251174623 1.4085674899747509 1.349664751341874 198 126 20 0.58699045760154367 46 117 98 1009 83 980 9 138 49 1010
2359 1.453089386252945 1.4363396596865416 1.3132582601007941 251 232 80 0.18303697911518346 46 1238 83 981 91 797 9 1465
2360 0.35204961466337775 0.68685981200080937 2.1446395654235659 146 98 15 0.64465517166727226 98 1017 83 989 79 766
2361 0.16942908985217423 0.70551181286570874 2.4574243015897586 255 222 63 0.24865478873617472 98 1032 83 1006 91 1053 9 1257 79 254 49 806
2362 0.014223309789119544 0.29021702202291522 3.05571113627219 0 0 0 0.2278974601861769 51 1303 83 1009
2363 1.0516315833168564 1.2052804818053908 2.2065971997444178 116 93 24 0.17403217833882662 98 1044 83 1018 13 904 3 790 49 1034
2364 2.1818636311371455 1.1289291600238176 2.5356957486933824 149 106 82 1.7259904337005907 30 808 83 1020 85 372
2366 0.57221282860550404 1.3865658314277494 2.4026055317293147 53 57 74 0.16085721483183044 98 847 83 1041 91 878
2369 1.0879867756501653 1.8907110650342649 2.3512437577708978 111 80 68 0.79298823079096803 98 1088 83 1060 91 1203 49 1148
2371 -0.44488681880444997 1.3183199394683955 3.0506352228241869 90 89 83 1.4850486829455125 51 1149 83 1090 33 817
2372 1.240660818548424 0.51543546878838564 1.4911218893970324 126 131 146 0.98213147716676685 98 987 83 1092 91 1229
2373 1.6895331263677866 1.1187078690110146 1.433713601431315 0 0 0 0.48473776045083372 98 1125 83 1099 91 1161 79 230
2374 0.15481013205387331 0.38082003362504496 2.7417269666161941 10 12 16 1.0233947000429142 98 1030 83 1115 91 1173
2375 -0.20297946439932302 0.65324097002088954 2.6699581143613162 104 113 137 1.0162638279743303 98 1045 83 1122 91 1251 9 1531 79 721 85 459
2376 2.1517953097390485 1.0934866899070406 2.500405540735203 0 0 0 2.0578981209508744 51 1088 83 1125 13 914
2377 2.4922032398015554 1.2647958774795733 2.5857100494052672 0 0 0 2.998489705031897 90 1105 83 1126
2378 -0.15406120601054629 1.0591780741775738 2.8274983218720458 49 50 65 0.53183769436471318 98 1070 83 1134 91 1190 9 1310 46 1504
2379 0.3698483693506468 1.7259071214644313 2.6366503733999309 88 88 82 2.0284281692523995 41 1331 83 1165 33 788 29 1001 81 734 2 804 49 1072 9 1425
2380 1.2341026983628833 2.1224009486558919 2.2965281727221805 89 89 83 0.83922178514628787 90 1130 83 1168 58 634
2381 1.3884281286767886 0.48960932100680976 1.3823018503551501 251 238 75 0.15634181129476465 98 1193 83 1171
2382 0.20145462210768006 0.29331570132622975 2.1112121771588162 240 178 41 0.2855703881046821 98 1199 83 1178 91 1262
2383 -0.094627158684987694 0.45410618775094691 2.1825201747758824 90 63 12 0.40091011877081967 98 1128 83 1182 91 1236
2384 1.1136646223399791 1.1625766771481734 1.5964265221451406 0 0 0 1.9141585390278708 51 1283 98 1203 83 1183 91 1239 79 769 27 654
2385 0.96168909371753752 1.137678988918595 1.7055980623483145 100 80 21 0.61726313238598451 98 1207 83 1186
2386 0.28924177460559369 0.80670328514015899 2.2403564105706577 112 95 26 0.26043271237758753 98 1212 83 1189 91 1244
2387 0.12157425049652702 0.28561982209680237 2.5109771072968181 62 62 67 0.44639418386512308 98 1204 83 1210 91 1237
2388 0.9765917839723125 0.68902403312471405 2.1135008892052558 0 0 0 0.84445570759781918 98 1234 83 1211 50 546 67 565
2389 0.89813858780143963 1.1976184042103069 2.3902323870589122 128 91 47 0.81073103157326332 98 1239 83 1217 79 831
2390 0.10324536168767993 1.5018338886045737 2.7846528052977262 42 32 29 0.51625319791217461 98 1252 83 1226 91 1276 9 1558
2391 0.82572521520004183 0.77930431657963628 2.112202016685381 206 178 66 1.0263722971968658 98 1254 83 1231 91 1292
2392 -0.11044163734629683 0.56707552162125963 2.3443803920239472 105 91 27 0.98544421782436487 98 1286 83 1261 85 641
2393 1.0828002766838287 0.8679748079167392 1.8555692342680348 126 87 19 2.2847862819820031 98 1298 83 1275 91 1323 79 854 27 694 50 662
2394 -0.14193374734839101 1.3258303054788425 2.8999851335494027 22 16 14 1.6828649430699061 30 449 36 456 90 497 98 535 83 465 83 466 87 1251 7 1249 55 1432 46 1414 64 1232 41 1435 17 1372 95 1163 97 1061 51 825 30 450 36 714 90 525 98 533 91 400 91 708 9 1173 26 1070 29 1104 33 884 48 736
2395 1.1113928236276545 1.312194474035572 2.4006002899774543 61 61 72 1.4021512347356171 55 1468 46 1574 83 1219 30 1104 36 1069 90 1195 41 1459 17 1475 95 1392 97 1263 51 1267 98 1242 91 1273
2396 0.78879743048988682 1.5675706403821579 2.3145762023345395 3 2 3 0.83941094868245381 7 925 41 1111 95 819 36 832
2397 0.9918331769926293 1.249398787917839 2.368742441820447 83 47 6 0.21596236375346464 51 695 30 583 36 585 90 622 83 607 46 822 98 634
2398 -0.27023619307508562 0.9934822579548227 2.8824379022289213 67 71 66 1.8475444852436727 51 990 98 861 83 836 30 880 90 900
2399 1.592538784718915 2.2897034846288919 2.1510066438257796 86 87 81 1.4878528389062424 17 858 95 1099 51 1002 83 1078 97 993 36 980 33 613
2400 0.64285028911391018 1.467352315763657 2.6121043158691526 54 64 88 1.2776411325420365 95 1400 97 1220 51 1243 30 1108 36 1077 90 1174 83 1221 30 1131 90 1198 9 1537 77 727 77 786 58 632 13 1045 49 1194 3 948
2401 -0.0074911221810220318 0.98417597871140194 2.58975437598929 16 14 3 0.99908167090152245 41 1303 83 1032 64 687 59 753
2402 0.83750130559368019 1.6453149228385899 2.5760799494235527 105 97 78 0.24959648327297179 90 904 98 1085 91 1125 83 1057 9 1360
2403 1.840225014756302 0.98030424411130224 2.7159844799396411 147 98 70 0.30054264474835585 98 626 83 90 91 628 9 1038 13 134
2404 1.7737327649156103 1.6827327297159269 2.3532723033957086 231 215 178 0.032287706614515188 98 154 83 173
2405 1.8655749518751867 1.7665898819078694 2.322650530735979 230 217 182 0.21848252718452091 98 193 83 178 9 549
2406 1.7923549203254301 1.8413974006423273 2.2947816015139146 126 118 95 0.01339373886120343 98 270 83 251
2407 1.8492921601281742 0.95823784798870926 2.6940014988453411 40 19 11 0.38655168643484084 98 614 83 586 91 626 9 791 79 302 13 530 49 558 3 458 27 61 85 76 50 89 67 118
2408 1.849444883458099 0.95772333208772242 2.6943733934032141 40 19 11 0.39710618401029413 98 615 83 587 91 627 9 792 79 303 13 529 49 559 3 459 27 62 50 90 67 117
2409 1.9740709385993189 1.050186429805843 2.6815026305183545 105 75 63 0.10997070195075603 98 628 83 597 79 97
2410 1.7545507049373967 1.0186229821018151 2.7416816253462888 46 30 22 0.19892421520193362 98 625 83 608 91 632
2412 1.9256894785602521 1.2411073643998474 2.6107656828160688 231 216 179 0.46246082975239572 98 636 83 621 91 860 9 1072 46 1024 79 350 27 282 50 126
2413 1.4743470901874582 1.3533131508693526 1.3269934721165213 255 231 77 0.076831771044544334 98 769 83 740
2414 2.1946029298562246 1.2020783689580015 2.5836213744442169 227 210 170 0.15219176258689784 98 816 83 789 79 315
2415 1.5925535254440017 2.0978223431703635 2.1946510080876793 229 212 174 0.059405996828896045 98 1093 83 1066 91 1146
2416 1.4243969498787712 2.2149795299913784 2.209687076499256 89 89 82 2.0544689761164423 46 1411 83 1160
2417 2.0863264672210291 0.95074901275422374 2.6638817033833626 0 0 0 1.0246465138033842 98 1145 83 1192 91 1185 13 1014 49 1052 79 513
2418 0.00092559741548379679 0.36865800499142443 2.1336788089516321 171 119 24 0.073890771001591707 83 15 91 10 9 37
2420 0.53573679293926302 0.79523585583769862 2.3155825875158116 7 4 0 0.24272658615947515 98 46 91 62 9 134
2421 1.0364079090562566 1.1249271827074203 2.1111036803736565 107 84 26 0.14740130678485344 83 68 91 92 9 167
2422 1.0691308787705229 1.2562701903163254 2.3232620400849839 53 31 5 0.86819896623061521 83 102 98 104 91 124 9 814 79 291 13 511
2423 0.24155883684532334 1.0407969560806238 2.5966499507046619 80 70 18 0.099381166789476352 98 643 91 132
2424 0.2856191767756131 1.0587161001384851 2.5910042606479333 82 72 19 0.19075098935101134 83 627 98 122 91 133
2425 -0.072975627923403147 1.0762588953345777 2.7714094205214712 23 26 38 0.20485081559746732 83 190 91 169 9 399 79 83
2426 -0.011238577039003992 1.1047446293444694 2.7501662004381497 22 24 36 0.096782351221605292 83 192 91 172 79 109 50 230
2427 0.69593680788171774 1.4284867560736678 2.4063892181397528 39 37 50 0.19629999462073069 51 289 91 180 13 143
2428 -0.067369829868393336 1.1100336238545745 2.8331864391572603 21 24 37 0.17705416634895918 83 256 91 220 9 400 79 108
2429 0.2371215181666339 1.2067237192057123 2.7659039982979308 38 28 21 0.16659527297951532 51 444 91 228 49 143
2430 0.78289797352504797 1.4928579339057737 2.393816093822914 28 30 40 0.056501195496655027 83 155 91 235
2431 1.6679330650476885 1.6550993321483298 2.4063042567624255 113 101 74 0.27910445543990314 98 183 91 253 9 486
2432 2.2686071530176046 1.3118871748296264 3.3016489039146619 226 208 165 1.4253979216336563 98 241 91 306
2433 1.5815662735086786 1.7045414083193962 2.4106871517336099 234 220 183 0.13183851431655494 83 236 91 307 9 541
2434 1.6450961804728368 1.7307773261630723 2.3862411830500063 235 221 185 0.19073068265405638 98 255 91 310 9 847
2435 1.6107528552691641 1.7525877249133279 2.3775972381807069 122 115 95 0.14337994172137633 83 239 91 311 98 254
2437 -0.5217305322527207 1.2679195725067638 2.9944279897310953 148 102 78 0.1975045585201162 83 500 91 469 9 639
2438 0.02898947601858104 1.5067510125644661 2.7489419320961854 72 51 40 0.2174378233811555 90 526 91 480 9 915
2439 1.5560279742904113 2.0885684763647463 2.2157511549046722 117 109 93 0.07642714104540016 98 475 91 522
2442 0.42856789019265251 0.73217744168727161 2.379651787356889 254 230 60 1.4893384246779096 46 760 91 598 9 1006
2443 0.86314805296634001 1.0772279307978003 1.9989573041294488 154 108 29 0.06556747607075665 98 51 91 599 9 153
2444 1.1161601707580975 1.2102337670342445 2.0949418216314886 168 150 140 0.13527621197230483 83 578 91 617 79 275
2445 0.99840741155015711 1.2145639707697404 2.2681652816269349 113 92 23 0.19155163217263396 83 595 91 622 85 211
2446 1.0116047742169294 1.2074248669206225 2.2765784709385728 113 92 23 0.51981438657651713 83 596 91 623 85 212 27 229 50 205 67 242
2447 -0.14714830440004573 1.0969841378538552 2.8648787899408421 47 53 71 0.7727799472107072 46 1176 91 687 9 832 79 352 13 125 27 285 50 251 67 290
2448 -0.17600067964216831 1.3879525011057319 2.8175666094913541 109 75 56 0.27733933537058925 98 725 91 714 9 1182
2449 0.97152927596017269 1.8492339304083791 2.4190223362405305 94 66 56 0.13232845448129324 83 707 91 725 9 1197 46 1393
2450 1.5153149413164206 2.0472123659047896 2.2361431455839242 230 215 180 0.14287577108624222 83 441 91 740 9 920
2451 1.6555423961904503 0.5852308966023273 1.543993937423449 252 249 205 1.4516343320884655 40 1103 91 752 13 850 9 952
2453 0.81068493948278486 1.5682756302494496 2.5585203576771467 3 3 3 0.22875700640953603 83 904 91 915 9 851
2455 1.0105104764273594 1.8349094310606688 2.3973893631069072 222 206 170 0.83751820959317669 46 1369 91 993 9 1412 49 917
2456 1.4294411909669176 2.0422077064744126 2.268244427555107 98 70 61 0.61268763790790615 98 703 91 1004 9 1428
2457 1.5304493976411557 0.50714007587351018 1.503244614874186 175 106 16 0.06135993633045124 7 942 91 1008
2458 -0.15478626725030781 0.22434163643693092 2.1861211174960906 0 0 0 3.0156280293529303 46 1453 91 1013
2459 -0.13225354684357216 0.41254387951948718 2.140513083439274 183 146 35 0.14947427303819574 83 968 91 1018 9 1216
2460 -0.20177329452556214 0.67172794887613607 2.374134834513641 66 75 104 1.2021150329665544 83 1188 91 1048 27 569
2461 1.9120554489117696 1.1334901493534799 2.6750180730702811 218 201 161 0.10809519498631494 83 796 91 1082 79 667
2462 1.0865423665982703 1.2847580206640161 2.5224742389411898 106 67 11 0.69521300227639526 83 801 91 1091 9 1295
2463 0.71753716375300713 1.8759648605195753 2.5317544080212637 87 86 82 1.6207616450632523 40 324 91 1152
2465 0.67887597106718334 0.65642081952574538 2.3293804794695845 252 210 71 1.3218303620873892 98 1022 91 1177 9 1518
