# 3D point list with one line of data per point:
#   POINT3D_ID, X, Y, Z, R, G, B, ERROR, TRACK[] as (IMAGE_ID, POINT2D_IDX)
# Number of points: 375, mean track length: 4.9330099165299277
11526 0.2509995213446598 0.26070279405009122 1.728829196005915 133 168 104 0.80742871421473772 80 1733 75 1641 46 1527 39 1491
11527 0.49834932136564963 0.87746185439978452 3.0691817942025281 0 0 0 1.6946935395672491 80 1727 75 1647 46 1573 39 1524
11528 -0.28128593101895683 0.2151714445447796 2.5278970665266427 176 176 186 0.68165881784971272 7 1991 75 1654 83 1877 39 1527
11529 0.59168459912705562 0.73537161853273525 2.2175215534217698 254 251 252 1.1518395342002741 80 1737 75 1655 46 1593 39 1559 83 1950
11530 -0.11856308861695644 0.33846286404561399 2.7124386007666907 0 0 0 0.63004272839305175 80 1742 75 1659 46 1538
11531 0.55067325351593688 0.74879702024161654 2.5073658945230268 184 190 205 1.2801540272668326 80 1768 75 1673 69 1317 47 1193
11532 0.57594710830504892 0.84772461762954388 2.8966992629361505 255 255 255 1.7513252293321273 46 1604 39 1568 69 1318 47 1213 11 1309
11533 0.31545868085065731 1.5193220957898181 2.7913500557167725 255 254 253 1.3967190182403733 80 1783 75 1690 46 1605 39 1563
11534 0.064274783821210879 1.6189391674051163 2.5885385918586117 248 240 162 0.38830356140387512 34 2232 77 2358 63 1958 75 1366 16 2028 95 2043 2 1866 62 1738 54 1694 74 2148 35 2225 12 1765 8 1317 31 1412 83 1694 80 1547 46 1313 39 1316 78 989 98 1351 30 816 44 1157 88 975 50 696 70 523 84 177
11535 0.51307716438376749 0.47446217433676713 1.8237502575625593 187 189 142 0.20659712867826929 100 129 64 798 7 83 80 608 75 542 35 926 74 190 83 768 46 503 39 843 69 376 11 35
11536 0.33354798501994271 0.56140145552826737 2.1407402255227952 56 103 53 0.17835739377299539 53 791 93 828 75 902 59 972 100 1460 64 1287 80 1002
11537 -0.00084793845203887108 0.37155309916126816 2.2119004667089954 176 181 128 0.41359632698352417 79 1966 53 1760 93 1725 18 1683 75 1118 7 1365 80 1215 46 1089 69 868 11 708
11538 0.11426347853666974 1.6263474782610636 2.5952685807824492 87 149 73 0.16464616942352656 2 681 54 472 74 763 12 640 59 1330 31 75 75 796 64 1126 100 687 7 980 80 865
11539 0.034779033706482276 1.699642940328729 2.6323067625932013 172 180 135 0.20385548630042355 64 1142 7 1001 80 886 75 804 26 1138 27 1379 69 798
11540 0.020526375464358371 1.7016060449844372 2.638170545100448 68 131 73 0.55413951918863358 37 712 100 1744 85 1268 64 1517 7 1293 75 1060 79 1139 26 1863 20 1483 27 1620 69 953 11 827 46 1034
11541 0.35644898290510491 0.23836649350053202 1.5558845684205669 255 255 255 1.186221828974191 85 1795 64 1788 75 1282 16 2088 95 2232 2 2022 62 2021 54 1891 49 2214 34 2379 74 2295 35 2325 77 2574 12 1927 37 2330 63 2191 82 2363 55 2309 43 2210 98 1705 8 1763 31 1676 83 1838 80 1351 46 1427 39 1440 88 1238 11 1110
11543 -0.20276368233373787 1.4811160052611068 2.5736461777916619 154 179 103 0.94271898198164561 59 2600 37 2613 100 2478 82 2679 61 2646 76 2417 64 2267 7 1983 80 1716 75 1627 16 2192 49 2292 95 2319 2 2103 74 2427 34 2522 35 2525 77 2737 12 2007 63 2307 55 2437 43 2471 83 1936 33 1898 46 1547 39 1509 39 1533 52 1917
11544 0.2953707025333655 0.37965631819836942 1.7855991466831183 73 143 78 1.0705647351824537 60 2429 79 2308 26 2311 27 2052 75 1642 16 2136 95 2264 2 2053 62 2059 54 1947 34 2463 74 2378 35 2473 77 2662 12 1975 59 2540 37 2544 100 2427 63 2261 82 2620 85 2468 55 2403 49 2309 43 2486 61 2664 64 2218 83 1918 7 1963 80 1735 46 1528
11545 -0.028031599418065489 0.34120276082652884 2.1710407677354189 27 46 22 1.9857081966282422 64 2123 75 1485 65 2108 93 2010 18 1965
11546 0.16638779566610817 0.43587217962504832 2.0730633928960658 70 139 79 0.48567471430616799 80 91 75 91 7 707
11547 0.39612422851118462 0.58091685859898412 2.1444993098386136 69 125 71 0.17534513284876338 80 143 75 140 46 120
11548 -0.066447058337151685 1.4502924247454543 2.5546530423928218 154 205 107 0.17367648598024191 80 400 75 361 46 311
11549 -0.067662140569630991 1.4726803278761114 2.5601350393123004 255 241 140 0.11159912764470488 80 401 75 362 46 333 39 353 88 261
11550 -0.066007161109451942 1.4769650664511729 2.5564075625983462 255 241 140 0.082408599201710647 80 402 75 363
11551 0.42963981786453759 1.3252921862327744 2.89531528659785 90 69 50 0.95964894572585102 80 509 75 830 46 788 39 458 69 977 11 845
11552 -0.41524259911827721 1.2029157522207683 2.5733010563208927 243 243 132 0.22124298092606759 7 1188 75 969
11556 -0.6540048026753269 0.64425875257607612 2.2495308271560281 84 83 42 0.084253198945049054 80 131 46 75 39 52
11557 -0.4709516026141396 0.41756631689961471 2.2677841712940374 195 198 140 0.41934502198621526 75 125 46 80 88 31 6 27
11559 0.46881734349494236 0.54412761860572023 1.9970114997057598 77 127 73 0.22015270044069335 7 150 46 89 39 94
11560 0.25198088136570412 0.014958437276107434 2.3785181416136312 77 127 73 1.9995510435161998 35 120 46 90
11561 -0.61929365294622185 0.58804025280367966 2.2960854586355741 223 235 250 0.1978821051613131 7 209 46 95 39 540
11563 -0.64446827040481081 0.38387497344954263 1.6377568266859448 0 0 0 1.5807715408104177 33 286 76 196
11565 0.26726819711422134 0.23920119358302322 2.3696286704027378 86 148 87 0.23078017852478905 26 269 46 114
11567 0.37048048646747783 0.58024692662754118 2.1550715004179879 73 139 77 0.16289283873274701 7 193 46 119
11569 0.59686510467759701 0.63035864250021501 2.0900417637901909 252 250 252 0.11415260039278048 75 144 46 126 39 177
11570 0.04277921547839883 0.3915301668842609 2.5135287434638478 84 114 73 0.20306594113381227 64 293 46 128 39 856
11571 -0.32364770367408224 0.23935007776473533 2.7816296750303566 154 146 149 0.94887708351525102 75 193 83 707 46 134
11572 0.40943814272747853 1.1115627453134949 2.1207971135327299 71 125 62 0.07721096082861291 75 186 46 183 39 257
11573 0.44269343150706314 1.0564930328651969 2.1102829545784241 254 248 165 0.23548931119474581 7 254 80 207 46 185
11574 0.48222633510434393 0.70951889311098149 2.5581052581286632 190 195 210 0.78782743325273297 7 316 80 270 46 240
11575 -0.29150990901817875 1.2003890686469785 2.5552425425269147 118 204 97 0.36014957117789337 33 297 46 242
11576 0.66088439158976686 2.5387469185436315 1.1653197024288244 142 224 109 2.4701619443412461 75 132 46 255
11577 -0.12165607587510406 1.3096316714909737 2.5498125085217938 216 220 122 0.26813076374831263 55 414 46 260
11578 -0.0076684905111226997 1.2117814439970804 2.5579816303790057 221 210 119 0.4458297073604427 7 389 46 264
11580 0.025361198106236937 1.1305170935282032 2.5667196537126862 80 132 67 0.1284949571720162 7 368 46 267
11582 -0.53976847232248759 0.88013587666573811 3.1198977818960154 107 187 93 0.12551031916043182 83 276 46 276
11583 -0.60168850689928521 1.2751597672677346 1.8984767670814977 0 0 0 2.941336001462215 26 878 35 518
11586 -0.38900966545985627 1.5123972617958297 2.6044857653211881 223 212 127 0.2563111629015648 7 463 12 471 46 300
11587 -0.5483056004550253 1.1402840245941408 3.0194134715162102 118 209 104 0.45650133509438223 12 296 46 301
11591 -0.12213501510775165 1.4561753738373986 2.5598895785747882 137 204 104 0.32858675543952043 33 221 46 308
11594 0.32508980916732749 1.3453146835177665 2.4453359786962059 92 67 45 0.57980575893870279 75 301 46 317 39 362
11595 0.49422793244294544 0.67739763789091234 2.9247093172688938 245 240 252 0.96205331161262619 7 880 46 323
11596 -0.55159846851898064 1.5314386887387268 2.7711073681506173 106 132 86 1.4717440755992512 75 396 46 325 69 233
11597 -0.6174048511734016 1.0626944756873746 3.2015813243251223 126 216 107 1.269361291225013 83 329 46 330
11598 -0.19158515550414648 1.5129479057248225 2.576028418337283 250 232 140 0.14232528096886943 61 1261 46 331 39 326
11599 -0.64832878363203683 1.1218564785147609 2.6132807939504539 0 0 0 0.032056522213515223 35 556 100 528
11600 -0.0059241347703378744 1.509314690339677 2.5618319297731591 106 178 92 0.03424384916666779 75 381 80 418 46 334
11603 0.047081402697398883 1.4743523062963464 2.5656553133992168 93 152 82 0.20369863040321973 7 482 46 337
11604 0.41670865139576857 1.1295709959587736 2.644020154231844 81 139 65 0.29621658438431742 80 383 46 344 39 748 88 343 5 219 32 143 45 218 72 79 48 64 28 45
11607 -0.0637310234102553 1.5816969310415434 2.5817928985303542 234 229 137 0.15136781281537076 83 576 46 355
11608 0.62540931681169631 0.83529281884769868 2.9365457912569521 134 109 84 0.60217992020067435 80 431 46 363
11609 -0.38121359328202276 1.6382803372602732 2.7913056173449458 113 91 62 0.1015384167211449 80 474 46 369 69 287
11610 0.091557321773953232 1.5783133685020776 2.5818845255729004 94 157 86 0.45924742881291147 80 443 46 374 88 312 11 604
11613 0.51253862241556836 1.3136000854687715 2.6509250700530078 255 248 239 1.2151606281972303 80 450 88 686
11614 0.058357333941850498 1.6451057619200558 2.5965494147027544 101 185 95 0.12628899003216204 83 610 46 394
11615 0.093963037938710331 1.6244005333377833 2.5887706670334945 197 202 120 0.10445598486177282 80 460 46 395
11617 0.11501835942716782 1.6534740932359482 2.6044304750193579 73 139 76 0.10081261065889263 80 484 46 400
11619 -0.19708388679123387 1.6962138593658074 2.7739734027706855 224 211 209 1.6151508333496496 26 1203 46 418
11620 0.15160282079682796 1.6541481512049878 2.6118509325497539 60 107 60 0.1478905113141748 80 486 83 624 46 424 88 354
11622 -0.19628327717754468 1.6948854380074041 2.8732955239883111 160 139 116 0.51185102521419201 80 536 83 598 46 429
11623 0.21591475548095868 1.6511562530834141 2.6736508216434003 101 169 94 0.22399232809454089 75 442 46 432
11624 0.11473072934128736 0.13325852565800553 1.5906883580326274 245 235 211 0.72198508789952998 7 1036 46 471 69 361 47 10
11625 0.21391088041390621 0.19652889505602578 1.5799850086688867 64 46 29 0.086996583579511608 75 505 46 475 69 363
11626 0.032156471128571229 0.40390097830490834 2.2684535022614392 0 0 0 0.23670261999776471 18 186 26 902
11627 0.37441528579548816 0.41571843878583553 1.7843392413700538 92 165 91 0.16807481546763459 80 604 46 492
11628 0.51398161698184119 0.45520864890394441 1.7979503941924091 141 156 112 0.14924748803508936 83 747 46 505
11632 0.46057157958044043 0.51070656259666491 1.9017003589015355 70 138 75 0.22303497822642379 7 699 80 622 46 520 39 552 69 386 11 425 47 421
11633 0.49202982480927354 0.51608600700468554 1.91570878845799 61 112 61 0.4474938183070048 7 700 46 522 11 429 47 422 57 9
11634 0.19398897143350319 0.45203745015295121 2.0804583726736312 73 149 84 0.026440269300724267 80 642 46 524
11635 0.51265332894356375 0.55102952837678698 2.0308179074502131 141 153 111 0.16291997122136659 75 119 46 530 11 466
11636 -0.070589025950365231 -0.25119015571024983 2.862926703619479 136 145 98 0.63448579638819225 7 210 46 541
11637 0.38335513537593574 0.59130779754016993 2.1692796520411259 70 136 75 0.23904942817985494 80 673 46 542 11 100
11638 0.38320606162017684 0.59067757053783598 2.1690614747623247 70 136 75 0.10589838294938994 7 747 75 604 46 543 11 99
11640 -0.013589324541816578 0.40869270746360631 2.6019070673839906 62 57 28 0.31545419669400648 37 987 46 563 39 149
11641 -1.3163363585779346 -0.64972612923412698 3.8623214837474777 195 174 91 0.38664407214188112 75 1158 46 577
11642 -0.53718744230404392 1.1205664825561146 2.5860279554936696 202 226 117 0.2149141561122892 80 745 46 622
11643 0.56889696476547202 0.73764166578073498 2.4580604315770103 183 185 196 0.13646215782961624 80 729 46 634 39 283
11644 -0.98457100695586619 -0.17556044916673302 3.8705815947222293 226 218 123 1.9573539292769864 80 770 46 645
11645 -0.20630349140880644 1.2978769207118528 2.5479206573685347 240 226 130 0.10453308371485016 80 1074 46 669 39 687
11646 -0.12618574973297472 1.3038494285656137 2.5504649360056812 200 214 117 0.38323763488779539 33 810 46 670 9 113 94 71
11647 -0.36249686189103003 1.4558671159243501 2.5812560021908584 134 219 108 0.089019312084279767 75 717 46 681
11648 0.59706543271689938 0.77813800778835795 2.7232574719168285 87 64 41 0.13163421443170631 75 715 46 701 69 538 11 579
11652 0.33725536408966206 1.3439255559238616 2.438465592084873 255 241 185 0.60358311744562609 75 708 46 713 69 166
11653 -0.10534648517037232 1.5773594832407838 2.5767423193609851 119 204 104 0.092220880665735194 75 756 46 740
11654 0.15593472283173704 1.4292915661854781 2.5889928184861586 70 131 75 0.24632318268930606 12 625 46 741 11 252 47 213
11655 0.21587488811064709 1.4306231103139828 2.5676115082365434 219 204 201 0.20418870080894505 75 1219 46 743 39 396
11656 -0.10148228359913028 1.6307114613098364 2.605460092123888 199 212 124 0.14120711989761547 61 587 46 750
11658 0.19821133945545172 1.5598481065196215 2.6161794786559063 62 130 74 0.074897809337236457 80 869 46 764
11659 0.63475792363523809 0.81797870591128374 3.0800889103549114 244 242 249 0.34705354790610476 80 854 46 768 69 828 47 920
11660 -0.19972671667241709 1.6600118636318622 2.831095441118312 224 212 211 1.0667969793922516 85 1314 46 771 39 425
11661 0.18093702058904748 1.671932928340329 2.6131253013068574 98 139 80 0.45423675909067063 7 580 75 807 46 773
11662 0.28498269840671253 1.5506715158271462 2.6741944475115029 163 182 127 0.19950495372707183 75 810 46 778 11 642 47 574
11663 -0.28336888440572172 1.6735380933435315 2.897783048966085 64 53 42 0.35080552462852682 75 1067 46 779 69 972
11664 0.081153472990452336 1.7264199657446899 2.7067535469461359 172 185 134 0.15763994513291824 100 750 46 780
11665 0.39608181734927955 1.4243634308005073 2.8329566704733566 250 250 255 0.26105054651256909 75 828 46 785 69 611 11 843 57 475
11666 0.42144770762499756 1.3440862715501469 2.8778862516554327 255 253 247 0.54115209917978957 7 563 46 787 39 784
11667 0.34191571039075225 1.5210021593733645 2.8332636067193397 98 72 44 0.56618683428652983 75 480 46 790 69 825 11 654
11668 0.33621865265192208 1.5393813835219525 2.8377137845911098 104 78 49 0.18471762344400541 75 839 46 791 11 850
11669 0.36741139771451842 1.4849809541444887 2.8604935098730886 240 241 250 0.30452811737085544 75 481 46 793 11 668 47 617
11670 0.42479125916543031 0.49427105011274758 1.8530221038302963 74 148 82 0.35575700955793232 75 881 46 844
11671 0.48291979280347336 0.48292393309894677 1.8415786957538727 83 148 75 0.59137741439305291 80 969 46 845 39 840 69 671 47 35
11672 -0.39210490760876904 0.31365834753745137 2.2774326724916181 104 160 86 0.15033069248402761 75 898 46 854 88 909 69 687 11 707 47 670 57 527
11673 0.3964222045137567 0.52370895961351072 1.9777755113871145 73 145 82 0.21069614247627824 75 894 80 993 46 865 39 848 69 676 11 696
11674 0.55481100625612645 0.59951422306250746 2.0759210090000515 211 210 219 0.30950118796293052 80 1223 46 880 39 603
11675 0.39999822452133699 1.1820264714192124 2.1915902101242386 255 255 255 0.54652586839625161 75 942 46 927 39 926 69 879 11 735 5 534 15 432 32 434
11678 -0.22632701626992718 1.4411283779993393 2.5684344047092758 226 227 129 0.13519962897215645 7 1464 46 958 39 943
11681 -0.23747092557542637 1.4605420240183362 2.5662173436719535 120 209 103 0.068388590142126865 75 993 46 969 39 942
11682 0.014462604757240372 1.3571970094215446 2.5537480648281079 107 164 86 0.433936235311014 12 1359 46 972
11683 0.21737603644917725 0.32828877333308426 1.7687665803855686 0 0 0 0.51556567218801885 82 1941 85 1816
11684 0.12398608531223021 1.2615026235478382 2.5723215444420937 238 225 130 0.46986709962489387 80 1092 83 1301 46 974
11687 0.36107535645413552 1.3780508380513976 2.4889074463303498 255 255 255 0.33661241974666761 7 924 46 990 39 763 83 592
11689 0.39725097688523564 1.3247207169953104 2.6191811865352235 107 150 85 0.26688580142906937 75 764 46 1008 39 1018
11690 0.0023722470528796946 1.5852976655151461 2.5871806921131841 105 186 96 0.032405224611091812 80 1129 46 1016
11692 0.51119800229761325 0.83868159862723846 3.025926478081546 1 1 1 0.44815863203886369 80 429 46 1023
11693 0.13944405391399334 0.15562426437935334 1.5077300396523885 163 120 80 1.5904795261859557 7 1032 46 1054 39 1049
11694 0.29536840069858622 0.32367588670104308 1.7208909909321315 84 164 91 0.33408403942849535 75 861 76 1343 46 1061
11695 -0.33584131940147793 0.20278797606438159 2.2686574651848566 167 127 97 0.24769083931227678 80 637 46 1074 57 521
11696 -0.71837862148968279 0.57493077583412577 2.2367805327868728 253 200 119 0.54611867966539529 64 1828 46 1078
11698 -0.45784949851974582 0.48953871629221385 2.7373415905927563 83 140 62 0.54886629039799673 83 1792 46 1104 88 1118
11700 -0.13431549771363888 1.0253903608309656 2.5611212670810706 200 212 116 0.28573981262666781 75 966 46 1134 39 1149
11701 -0.05055259146809854 1.1582119538981963 2.5597730815521182 229 223 127 0.25761907264947992 75 974 46 1143 11 772 47 184
11702 0.71327060250225105 2.5691631011394347 1.1640259861646487 246 229 135 0.88137457888028481 75 1123 46 1149
11704 -0.18309784414416344 1.6539578248358402 2.8529507730141623 241 241 252 1.5705294340839273 7 1686 46 1194 11 1093
11705 -0.16239988092425656 1.6901168528826072 2.8679402179116007 234 244 255 0.54497574143163596 75 1467 46 1196 69 1189
11708 -0.56193729111947144 1.0488168758192375 3.1875858256579184 126 210 106 1.0824680255646792 83 1640 46 1298
11709 -0.43976871916284815 1.0537693187209625 3.1735895068724846 105 185 95 2.23822931457015 83 1645 46 1299
11710 -0.089833461879814391 1.5597138115124061 2.5678127286987222 125 207 106 0.35656621651392562 80 1443 46 1304
11711 0.40099940125561356 1.2994489531457711 2.6171667373795278 176 188 107 0.16077010744210096 80 1311 46 1306 39 1315 88 1099
11712 0.26942842494351793 1.5010563733354259 2.5902701275928135 48 51 16 0.99789744570547378 80 1542 46 1316 39 1205 83 1354
11713 0.14330238094877601 1.7122700273298337 2.6917624238536839 199 206 156 0.1650030554453529 75 1381 46 1329 39 1327 69 1138 47 1051
11714 0.21431851332415047 0.20257198342274735 1.5892143005125046 84 61 39 0.37068562137449429 7 1549 46 1346 39 1230
11715 -0.28038912943704353 0.81324828845960662 2.6164744256012926 85 147 69 1.2535100303344417 75 1340 46 1375 56 896
11717 -0.35060586808255911 1.4816856890970627 2.5884413204905514 200 225 123 0.99663572531925926 12 1877 75 1362 46 1400
11718 -0.63865829347746184 1.2015891630685485 2.6207431436032596 0 0 0 0.16575272453732137 34 2291 100 2244
11719 0.1105420907029171 1.6741587853989124 2.6113251994900817 133 160 87 0.71984538176442769 75 1370 46 1418
11720 -0.49734900098263041 1.0351668603181303 2.5841485779205793 195 228 117 0.84144633751592446 75 1422 46 1446 39 1411
11722 -0.20208180963226793 0.85587768856050928 2.5955349958345209 161 166 88 1.2135415215225922 75 1347 46 1448 39 1463
11723 -0.94964953488506199 1.1304938869704533 2.7506763330944128 0 0 0 0.18818317577102206 83 1609 46 1451
11725 0.37997546832334989 1.3536782030993075 2.5080590464801609 255 255 255 0.73016462294530904 83 1826 46 1507 39 1484 11 1258 57 913
11726 0.09296660012405536 1.7543023288830917 2.7598751477106238 255 251 249 0.61471953961208803 7 1959 46 1518 39 1488 11 1161
11727 -0.70678972185350841 0.65203382458891057 2.3440104549698866 0 0 0 1.7573540256868057 75 1608 46 1533 69 1246 11 1210 47 1067 6 848
11728 -0.25221556675938672 1.5671086045102893 2.6193144948158222 164 203 114 0.91183824484988441 75 1630 46 1553 39 1513
11729 0.44286899365970195 1.2705943133653324 2.6291680417039776 200 210 132 1.5053272096387744 80 1722 46 1556 39 1520
11730 0.51417804039534065 0.55749783038674261 2.0281242183814419 141 154 111 0.99417896563747965 80 1736 46 1559 69 1244 11 1245 46 1536 47 1092
11731 0.4285569026680815 0.57644738161012254 2.0823087666902342 106 155 95 1.3447609159806584 75 1643 46 1560 69 1272 11 1272 47 1152
11732 0.35742033216850272 1.2294775296200628 2.2641842942554744 247 255 255 0.6631420625224842 75 1662 46 1584
11733 0.66333775383368465 0.74417718456860471 2.9296061688948476 0 0 0 0.520096013369032 46 1586 69 1293
11735 0.21528002615947167 0.20355764943214938 1.9290142151579943 0 0 0 2.2741131841620184 75 1692 80 1785 46 1609
11736 0.22749310150003482 0.27013727645435548 1.900645039618666 81 159 88 2.5020004571764276 75 1693 80 1786 39 1574
11738 0.29732011131573138 0.308175305771273 1.7054791806434997 185 185 130 0.25446782219229785 16 1595 12 1464 63 1234 55 1331 49 1318 43 1378 46 830 95 1646 74 1757 35 1853 83 1394 82 1462 100 1785 64 1221 7 1045 80 948 75 520
11739 0.42182182958860143 0.48630928387322941 1.9004914242953412 51 85 48 1.7729261714180975 80 621 75 550 46 514 80 619 100 871 69 384
11740 0.28395119083408205 1.3971064954777064 2.4907733178992313 195 179 169 0.74560569344230287 83 1019 75 1000 46 726 74 685 100 557 64 508 27 339 7 921 80 819 39 990 88 637
11741 0.35163792247033815 0.36374062792010642 1.7390364654574302 205 201 148 0.33264680180000511 95 2059 34 2252 35 2244 12 1790 59 2333 83 1714 7 1701 46 1349 85 2071 60 1995 79 1713 20 1616 26 1689 27 1479 75 1293 37 2174 100 2045 64 1799 80 1360
11742 0.56240162604832156 0.85302443460945065 2.8483825517710075 248 249 253 0.41800343254734296 7 902 80 1103 75 1020 46 993 64 1001 83 1310 80 825 39 995
11743 0.12224405529104088 1.4874781079993149 2.5808848789020513 249 236 151 0.2446001213142992 7 943 80 833 75 760 46 1003 16 1155 95 1582 2 1112 62 1503 54 912 34 1766 74 1691 35 1775 12 1400 59 1767 37 1749 100 1682 63 995 8 639 31 642 64 1479 83 1338 39 1006 44 25 78 806 30 396 51 811 50 33 11 584 70 51 47 211 45 493 5 557 66 31 84 199
11744 0.45607592872001551 0.53078316825968774 1.9516354023904507 38 68 37 0.55991732425103768 80 1205 75 1111 46 1090 7 1353 27 1196 39 1089 88 742 47 659
11746 0.19048648358441189 1.4922531493098203 2.6120218050576653 190 183 123 0.58441125215927969 2 1862 98 1526 83 1695 46 1315 59 2280 100 2142 64 1907 7 1667 80 1449 75 1367 39 1317 78 1221 88 1153 69 934 11 1075 47 979
11747 0.36497366131346159 0.30334191681494072 1.60084294845884 91 99 42 1.2370053743903884 34 1825 77 2215 59 2159 37 2164 100 2036 85 2064 64 1791 82 2367 7 1553 80 1355 75 1290 46 1222 83 1389 95 112 39 1063 69 998
11748 0.43195038761589394 0.60795173260107294 2.1968863623643857 63 114 58 0.55164905405453946 100 2083 85 2108 64 1830 26 1736 27 1724 7 1592 46 1241 80 1392 75 1322 39 1109
11750 -0.46726887522030819 0.27087405276698884 2.2257450341363878 224 240 122 2.251710149567768 83 671 46 49
11751 0.26075753313742267 1.5885898640842131 2.6873997128520246 98 174 94 0.19869920501285671 80 507 46 428 47 573 11 340 6 201
11754 -0.32786060923766913 0.95255344945982623 3.1511230354210364 102 159 84 1.9137323291189254 83 1231 46 987
11755 0.21770397609324355 0.50564497260795016 2.1906217845816038 139 152 101 0.0057560252780179079 80 1386 46 1095
11756 -0.14173268371065337 0.061088952324322737 1.7536992443071093 192 196 210 0.51598106622298801 46 12 39 4
11757 0.36445770947965578 0.31242276637129351 1.6936465702839762 64 126 76 0.23366385121369179 74 103 95 111 39 23
11758 -0.48308760593552652 0.41577277381855443 2.2253273681839674 78 133 69 0.0064268627534895383 46 62 39 39
11759 0.41942174613080058 0.41600463827185408 1.7757900381774998 192 184 130 0.19668473741027376 83 111 39 45
11761 -0.46569709545387189 0.41652268890527827 2.280826540056291 87 152 81 0.26359615332482089 46 81 39 60 88 33 6 28
11762 0.41215113960489796 0.4489972183601188 1.8143838700313406 93 162 91 0.031391421398107786 75 52 39 65
11763 0.51487510383579593 0.4624751632815175 1.8063236735975767 64 102 62 0.15221944058463993 83 163 39 70 11 34
11766 0.4042501972958305 0.494218327156978 1.9218995129796137 82 155 88 0.072435293125713729 46 66 39 84
11769 1.1605364696588605 -0.47156067344032809 3.4217420702221943 0 0 0 0.58191528213675559 37 192 61 213
11770 0.47147029771278465 0.55975625610845636 2.0457544945998727 73 135 74 0.039622558103467286 46 103 39 105
11771 0.47147029771278465 0.55975625610845636 2.0457544945998727 73 135 74 0.039622558103467286 46 102 39 106
11772 -0.54042221741830609 0.54578944194421064 2.699387203135672 111 110 66 1.5205454295976391 46 145 39 115
11773 -0.34869700378796697 0.32717531608081268 2.8018417784806799 30 48 24 0.15963816706091877 46 149 83 121 39 119 88 89
11775 0.35326996703348906 0.26540563422464469 2.3907534139684739 0 0 0 0.75983933596563369 26 277 46 123
11776 -1.2932742303907181 -0.47776432123786811 4.1642107770773356 95 142 67 2.5369435662700841 7 1185 39 166
11777 0.58427883262806479 0.66320210209472119 2.1414209270331885 108 89 69 0.41097204317636982 46 132 83 325 39 179 88 197
11778 -0.23890301802824929 0.66556299936327301 2.6574181447547121 164 161 88 0.099269231894874188 83 801 39 187
11781 0.53898182064457556 0.70016534472437542 2.3936998401977103 198 210 230 0.37288843679794481 80 705 39 235
11783 0.37845919809637091 1.1291202968474734 2.1237723107013955 255 254 245 0.40783298314696848 74 548 39 255 88 206
11784 -0.23640113187479406 1.4307105076020932 2.5644525088176624 110 203 99 0.14504932437185833 98 187 39 305
11785 -0.13710939247557852 1.395560247577776 2.5530953711379176 117 186 94 0.1032124488868752 46 281 39 307
11786 -0.3465918862858437 1.1368060602114578 2.8657263981029111 0 0 0 0.54398536880932413 8 177 46 282
11788 -0.23329049184945749 1.5087380903797465 2.5797850041002302 245 230 138 0.28409128795215888 82 703 39 325
11789 -0.17159275286777106 1.4403854626481971 2.5598281026001546 234 223 131 0.32643810434403248 64 1076 74 692 39 328
11793 0.16602233375177383 1.1924955824196595 2.5831232990237476 170 163 88 0.11686093956466673 12 566 39 335
11794 0.15403063994312982 1.2387687485883052 2.5778390778703719 210 193 108 0.21536479489257224 74 635 39 336 78 278
11798 0.13826429391602479 1.3291523242505163 2.5751974559548749 66 113 61 0.14392670955916179 46 313 39 357 88 295
11800 0.38504258536754693 1.1091602810846868 2.6342017115204222 68 126 63 0.011329769485513197 83 536 39 364
11803 -0.10290128101719018 0.28289975640524501 2.1494302641301402 0 0 0 0.06237186263743804 53 163 79 218 60 237
11804 -0.59035280239789556 1.1477449559122297 2.5979479706565201 0 0 0 0.024774402475463187 65 484 76 610
11806 0.03793646713576046 1.4682727653446637 2.5638912020378317 248 235 139 0.25082271506698001 35 730 63 385 39 381
11807 0.42589780688482498 1.1046867684001302 2.6459154252203096 72 122 53 0.18761227247517631 46 320 39 390 88 342
11808 -0.10228753334176345 1.3765935741193818 2.9810976054095826 84 134 76 1.5412551632945335 31 136 39 411
11809 0.12932058025027987 1.5419026425202991 2.583691081382153 78 130 74 0.076402017260360361 46 376 39 412 88 313 11 282
11810 0.14699369717094757 1.6459671548431209 2.6067012716349551 195 192 119 0.2544952934118121 46 401 39 430
11811 0.15170838001398329 1.6542714135954555 2.6117466367752624 60 104 54 0.14029258175880321 46 425 39 431 88 355 83 623
11812 0.31096439612452487 1.5180319638400863 2.6169268789802471 225 219 203 0.61358210714668371 46 406 39 433 69 788
11813 0.24057935629603333 1.6116909861212934 2.6788187588266439 94 174 95 0.14758486259421233 46 434 39 446 88 377
11814 0.43355871384764294 1.3273827906772124 2.8901996431188737 93 68 44 0.36037317382354184 80 510 39 459 11 844
11815 -0.064559117114726949 0.06573586390111795 1.7437606229074643 214 216 230 0.69660718155064627 46 824 39 494 11 416
11816 0.29224335377611232 0.28817311882799845 1.6919603738699847 162 168 113 0.023738267381309242 83 687 39 504
11817 -0.27068569258008757 0.090542137717626342 2.1682192027429554 95 79 60 0.3554699642935763 75 883 39 506
11818 0.34619478759353711 0.48624017659924373 1.9234367184743548 80 160 89 0.11340108547834638 46 511 39 546
11819 0.41907764197769609 0.50451138138585438 1.9191310746174026 107 166 100 0.28569725816935176 46 519 83 1138 39 551
11820 0.45698989574195509 0.51637743549431225 1.9199496652384649 81 154 85 0.67618093320618211 75 78 39 553 11 427
11821 -0.73799082370384705 0.7179288411822824 2.5595448218433581 129 102 78 0.25626349257249936 46 551 39 559 88 449 11 492
11823 -0.51008273331666165 0.72866390356842592 2.6628703683230315 122 204 92 0.77545560808512981 46 593 39 585 99 468 56 581 7 821
11824 -0.19311370696474206 0.51731105314967629 2.710377480949048 87 141 65 0.13749610494423151 46 175 39 616
11825 0.45745458985235693 0.62005033339139892 2.2352992049353984 61 113 55 0.57590078852469961 35 292 46 556 39 621
11826 -0.4987891400375386 0.93039965595384677 2.6020884472978349 127 211 97 0.24126857767712831 46 611 39 625
11827 -0.36523279695462219 0.8015736472440278 2.6248657794637942 100 157 74 0.41735373691035044 46 170 39 627 88 487 56 383
11829 0.4381081080748544 1.0718302603676755 2.1101993918972535 73 124 64 0.25421385354267656 46 604 39 653 88 553
11830 -0.35985470606532888 0.68540656458046345 1.8434259778954407 0 0 0 2.5266327919840164 8 1167 53 1208
11833 0.35067168791255943 0.94289088189367098 2.6551904350423325 82 139 69 0.173143320288143 31 816 39 703 15 333 5 436 32 487 88 826 45 540
11836 0.034364921790785263 1.2937486335258066 2.5534504111280381 149 171 94 0.65922445885435954 83 982 39 712 44 483
11838 0.12660974403131109 1.2455685090625697 2.5708499608806017 73 124 62 0.4006820080531458 75 298 39 715
11839 0.1904626294238167 1.2194857709580913 2.587580820038315 137 144 76 0.018791403239032063 46 712 39 716
11841 0.58933614248306299 0.78277945924374626 2.7075550441642915 252 253 255 0.33500796403891198 46 295 83 476 39 725 11 575 47 529
11843 -0.20958710845743725 1.526886117027864 2.5814001094682899 236 224 136 0.046976057161597154 83 995 39 730
11845 0.12344555984463806 1.3323491080401841 2.5681503650610589 253 240 143 0.23566992455860858 35 1324 39 732
11847 0.085308768560641429 1.6459770011956558 2.5982773331421827 176 200 114 0.15234701755725283 80 864 39 777
11848 0.20338992027200609 1.5491308034308979 2.6157390019657387 63 118 67 0.34773057018016579 46 762 39 779 88 653 69 248 11 624 47 252
11849 0.035950061244365145 1.7459292887433524 2.769281478502883 111 86 62 1.5373746198022147 46 1331 63 453 39 785
11850 0.38817335175781537 1.4408878098865674 2.8846742840422359 255 253 255 0.57253602384684166 46 1045 39 792 11 1000 88 891 47 1007
11851 0.38720870038197069 1.4400780718482966 2.8852424999301496 255 253 255 0.561515614435521 46 1044 39 793 11 1001 47 1006
11853 0.022695599830008739 0.081827065077866204 1.6223428608577986 213 213 226 0.25783864610336216 7 1035 64 1564 39 809
11854 0.20299595973100809 0.13179223927635597 1.5084879136925313 255 255 255 0.4021936491912439 7 1033 46 815 39 812
11855 0.39065629302690091 0.304988844198267 1.5924194112813941 223 226 240 0.034902410105839367 83 1091 39 825
11856 -0.19023671805489908 0.25656553686243533 2.3627804119735401 0 0 0 0.029703216790885043 27 822 60 1470
11857 -0.32999234095487939 0.81639380098757219 2.6212606137855627 194 173 98 0.25914073389303877 46 613 39 889 88 488
11858 -0.62059168861046476 0.44016150513125063 3.1953434372664384 171 165 90 1.0919424408797811 7 1181 39 890
11859 -0.4046583026886143 0.56390293065014929 3.1743113531390383 152 152 87 0.023570971454557478 7 1211 39 904
11860 -0.057238248738689476 1.2477762478683625 2.5493094475913463 93 155 79 0.074366885923783821 46 671 39 934
11863 -0.0045807797141743656 1.2634993391490008 2.5493031343059114 162 178 98 0.23182028708977714 7 1444 39 949
11866 -0.75118562390220922 0.92280708376525555 3.3841642008735202 0 0 0 1.3198606131980344 46 986 59 1752
11867 0.17077664472867143 1.2949020948898138 2.5794989284495027 207 191 112 0.22311194857225172 46 711 39 976 51 840
11868 0.36721960035348383 1.1329810690513991 2.6242081960166868 146 147 84 0.077903113726985523 46 716 39 977
11869 -0.064294631407847372 1.6037742528380092 2.588730200986078 231 223 142 0.041201927662929752 75 1040 39 1000
11871 0.15936831853833505 1.5332380409990323 2.5951474943197121 189 176 119 0.30025843017078652 46 1018 83 1343 39 1013 88 844 66 194 70 323
11872 0.24302905638972572 0.14592894042713278 1.5055516904880839 240 209 151 2.0302441079540832 46 816 39 1055 88 1109 11 411 83 1706 69 657
11873 -0.43501402343426626 0.34821193967145614 2.2285694684287645 64 120 63 0.65052329335737502 7 1094 39 1073 88 905
11874 -0.34614661750364906 0.2015358941554975 2.2745108797444131 182 139 103 1.5862905520932276 83 1384 39 1074 88 911 11 701
11875 0.39412346032177575 0.45912178960466232 1.8330718221671407 80 158 88 0.030756248022092932 46 1069 39 1076
11878 0.47402014001570564 0.51448182893531813 1.9093059763985758 108 160 100 0.0934643604368251 80 1206 39 1084
11879 -0.42111000863711479 0.44023763634216395 2.7640431407416686 71 128 56 0.93120834989137002 83 1719 39 1104 88 1035
11880 -0.36542714240341267 0.40894037688870222 2.767404014110626 139 148 72 0.35241062609653495 46 900 39 1105
11881 -0.30633820183380311 0.75506085704766202 2.6319869571380594 160 159 86 0.13682577694237938 46 909 39 1120
11883 0.41684882087732428 1.1575451559482055 2.1808960343730637 255 255 255 0.43836587990643622 46 1267 39 1154 88 964
11885 0.4429994569186359 1.166328609569323 2.6585135762014449 212 214 137 0.13884328207981275 46 992 39 1203 88 995
11886 0.21067022868501106 1.7135187990067364 2.8231598839459844 121 100 79 0.13508191751659401 46 1336 39 1221 88 1006
11887 0.073931433644932126 0.12191630295409352 1.6445360058374257 218 219 231 0.25943832469709938 46 1218 39 1225 11 872
11888 -0.67892748838255734 0.64958012484455896 2.3261120897913909 0 0 0 2.023653404203011 46 1235 39 1242 88 726 11 892
11889 -0.7488542754877443 0.83911794436931708 2.6855112155105747 217 209 213 1.0671184187135709 83 1722 39 1253 88 916
11890 -0.54462265452299907 0.70042245679724591 2.6741464011111344 247 227 127 0.33650511824452456 46 1102 83 1592 39 1255 99 927
11891 0.5827418469338892 0.71248782262028598 2.3068774299990937 159 166 183 0.057421482184844358 46 1371 39 1273
11894 -0.48496222144936185 1.3283376682849009 2.5855133683290159 0 0 0 0.42800984336490339 43 2174 59 2278 100 2131
11895 0.39264393779658741 1.0820762074993302 2.6444069051741268 188 172 104 0.21606412405515651 46 1166 39 1305 88 1089 5 765 15 683 32 678 45 731 42 494 72 491 48 416 24 411 89 399 21 522
11896 0.39270989224955938 1.0819324938918595 2.6444395430800456 188 172 104 0.22306338522103922 46 1167 39 1306 5 766 15 682 32 679 72 492 48 417 24 412 89 400 21 521
11897 0.30762535634264632 1.4832321812608011 2.5676782423610387 162 133 95 0.59446577362026376 46 1317 39 1319 11 1076
11898 0.18881521788179617 1.5716845619259558 2.6088492390007767 60 115 66 0.26547232007867999 83 1699 39 1322 88 987
11899 0.61467910625699118 0.80430783598264299 3.4550832395981099 0 0 1 0.83227163581747887 75 1268 39 1330 11 1102 88 1105 47 926
11900 0.61791921421184304 0.80962342661094855 3.45142773580171 0 0 1 0.80466059040446969 75 1269 39 1331
11901 0.56895311051991904 0.59827706807682901 2.0521342929600177 226 231 247 0.093768569188082074 46 1358 39 1344 69 1090
11902 0.51907936971873747 0.95517976154262563 2.1670346612905211 136 188 116 0.69244647659858316 46 1369 39 1356 88 1142 5 805 15 710 32 657 45 720 42 594
11903 0.53161626094149694 0.78356838530221129 2.7021768184273327 210 216 233 0.46528049630514035 46 1398 39 1366 88 981 11 1149
11904 0.30023277959184247 1.3425619635539134 2.4714624288919484 94 86 44 1.4790956201345746 80 1530 39 1374 11 1061
11905 0.35292394105900227 1.3323121801169446 2.4335264764433284 218 189 165 1.0910355082633865 46 1462 39 1375 11 1142
11906 0.26020431149672568 1.5381659253687001 2.6401075671659711 54 101 54 0.38119962976937655 83 1776 39 1385 88 1097
11907 0.2647533499653702 1.5700915934565642 2.6627804199002139 169 191 128 0.33472937052644269 83 1779 39 1386 88 1161
11909 0.29171209439467866 0.16013579236977615 1.5058268782665187 0 0 0 1.0470086376226759 12 1850 46 1215
11910 0.60522395089894876 0.72604666356888625 2.5508561638521825 0 0 0 1.1624540450513743 83 1512 39 1420 11 1133 7 1418 47 1071
11911 0.39163490695558295 1.2967011297690669 2.5873977228021001 71 109 59 1.6307914820496776 7 926 46 1416 39 1425
11912 0.045947675673418731 0.09563136444791942 1.7271501530360513 66 133 70 0.039425917067737015 46 1474 39 1439
11913 0.45376319508106194 1.1387795969431427 2.6817685093471493 128 205 109 1.4349642000997624 46 1555 39 1521 88 1260 11 1266 5 943 15 810 32 810 45 847 42 679 72 595 48 596 89 552 21 586
11914 0.4996491714218439 0.87500952273002941 3.0772636371391577 0 0 0 1.4018240763894501 46 1574 39 1523
11915 0.59757489068762104 0.80577079382921046 2.8211518121674901 255 255 255 0.74004167708363955 46 1569 39 1538 11 1287 47 1178
11916 0.61793734792709953 0.78159613893377888 3.4199233408523617 1 1 1 2.3056064730433339 46 1575 80 1748 39 1543 88 1261 47 1170 57 941
11917 0.073397613561032943 1.8347754144907082 3.3210490487577102 1 1 1 1.9172650707817804 46 1588 39 1545 88 1262 69 1288 47 1186
11918 -0.44739276207399492 0.53458238387440571 2.7025164631801672 81 137 62 1.1490328391076474 46 1564 64 2243 39 1547
11919 0.16845694124233651 1.7000738441316796 2.8295248198036247 255 255 255 1.1865718292231864 39 1569 88 1304
11921 -0.081878662827178469 1.1899646254382681 2.5545869088861162 243 230 140 0.28945567215231993 49 1026 55 1082 39 689 7 387 80 312
11922 0.20903107183089992 1.4760902466844275 2.6246303903229147 59 118 63 0.25807000968040666 95 1586 2 1488 54 1338 39 1014 83 1344 46 1019
11924 0.069193957580772958 1.455065837539512 2.5659499702925621 230 221 141 0.2748348744951265 16 1926 95 2033 62 1887 54 1695 34 2218 74 2130 35 2212 12 1763 2 1855 98 1513 8 1329 31 1249 83 1688 39 1311 7 1651 80 1308 75 1204 46 1300 44 1021 50 714 36 398 66 304 70 529
11925 -0.0064188878204865241 1.116654537297348 2.5699597457683905 184 182 108 1.8021821627986871 2 1976 74 2272 46 1390 64 2012 7 1750 80 1526 75 1354 39 1360 54 1774 34 2286 77 2451 59 2354 98 1588 8 1621 31 1542 83 1751 30 1058 70 886 36 1059
11926 -0.25164012296178406 0.75614142484265812 2.63524156179164 63 108 50 0.93685868849623821 75 1341 46 1447 39 1455 16 2151 49 2334 95 2281 2 2064 62 2068 54 1909 34 2485 74 2393 35 2432 77 2694 12 1982 59 2563 37 2574 63 2294 82 2652 55 2432 43 2510 61 2698 76 2458 8 1809 31 1711 83 1885 44 1478 30 1203 51 1340 88 1213
11927 -0.42887121502918818 1.038993484703894 2.5859322563111578 74 128 63 0.98693975516828936 64 2198 7 1882 80 1585 75 1493 46 1452 39 1461 16 2165 49 2340 95 2292 2 2073 62 2078 54 1899 34 2493 74 2402 35 2499 77 2715 12 1984 59 2570 37 2583 63 2314 82 2668 55 2448 43 2523 61 2710 76 2462 98 1714 8 1792 31 1688 83 1892 33 1935 52 1961 19 1828 44 1460
11928 -0.39346468094610904 1.1596881518731172 2.5576058517561338 186 227 117 2.0373587134511877 7 1940 80 1647 75 1561 39 1470 12 1946 83 1896
11929 -0.45067351240705716 1.2499477898724241 2.5785786647343065 188 207 114 0.7817535553482583 80 1592 75 1501 46 1454 39 1472 95 2252 2 2040 62 2038 54 1866 34 2448 74 2356 35 2451 77 2651 12 1950 59 2525 82 2607 85 2456 43 2475 61 2648 76 2422 98 1683 60 2412 83 1863 52 1924 19 1792
11931 -0.031030283555891214 -0.082927873696069632 2.5636931645648264 0 0 0 3.0829478020200929 27 246 37 180
11932 -0.57934796610683859 0.82004030166327024 3.1125374044843714 194 207 114 3.4945626994718282 100 530 39 245
11934 0.11563026510362945 1.2422292927443879 2.5693831332537793 58 100 49 0.2669054030527917 16 1760 95 1819 2 1685 62 1707 54 1544 34 2007 74 1926 35 2028 77 2110 12 1595 59 2064 37 2064 100 1932 63 1720 82 2073 49 1745 55 1852 43 1900 98 1364 8 1348 31 1279 83 1527 39 1177 80 1091 46 961 78 1018 30 862 44 1036 51 995
11935 -0.24589901990357266 0.12492003792406391 2.1903983725106331 204 204 216 2.4086259570934723 16 734 95 833 62 9 34 857 74 837 35 893 12 15 77 1997 35 903 59 921 37 1915 100 874 100 875 82 1566 64 803 64 815 83 24 7 690 80 626 75 555 46 500 39 507 39 514 46 39 7 96 80 627 75 556 69 55
11936 0.069400245166083618 1.2707325055038112 2.5612128905154847 68 113 56 0.3605335516252024 16 1916 95 2014 12 1753 2 1844 62 1876 54 1688 34 2198 74 2113 35 2196 59 2257 37 2273 100 2120 98 1514 8 1510 31 1444 83 1676 46 1152 39 1176 7 1447 80 1289 75 1177 44 1037 78 1136 30 976 51 1107 88 962 50 1036 11 784 70 694 36 686
11937 -0.36613268827349676 0.3012052435869535 2.8307480986776374 14 40 19 2.3364721837690454 80 240 7 261 46 148 64 935 100 1048
11938 -0.95872128800873591 0.93525911041188126 2.9979013923543114 0 0 0 1.9996808703342239 43 2430 76 2435 65 2231 18 2077 53 2139 93 2120
11939 0.5557827323168496 0.47498317956177799 1.6949887652208599 128 128 133 0.28100933486077234 33 5 52 16
11940 -0.0044124090175855779 0.049618215984356909 1.678843935720473 123 115 111 0.96016701108273494 55 122 52 56 63 143
11941 0.057944638133901688 0.20317650879663951 1.7646110926767542 69 114 56 0.04838723650825047 76 66 52 75
11942 0.064802268832434645 0.23432652082041056 1.7972684467238187 69 117 60 0.074645680862424763 76 85 52 77
11944 -0.1049490853340868 1.3429093412316697 2.5503522331880504 118 205 94 0.33459529760223533 46 685 75 295 80 791 36 75 50 432
11945 -0.073687089630947361 0.11507449404920633 1.8243341337951113 182 176 130 0.30041916196717366 55 186 52 103
11946 0.035503379863432105 0.28003820709498028 1.8977935841433091 202 209 159 0.022613487239182654 43 157 52 105
11947 0.49630929471517332 0.7520314019082639 2.1837062478300431 174 150 128 0.61917429734173612 33 1075 49 801 52 123
11950 0.096005494877074993 0.39492682342851904 2.0934866326404409 84 160 89 0.35398427132270094 76 883 52 171
11951 -0.17482735094661495 0.15123287010388206 2.0637788751961934 56 101 48 0.30343536705559937 18 118 52 180 19 143 41 155
11953 0.50233497121590309 0.36717037906831729 2.5281031491292345 75 130 72 1.3758502802934536 33 729 52 193
11954 -0.31021233970255763 0.11613284229845908 2.2484449592917386 106 81 56 0.080748338556448807 33 383 52 259 19 181 41 236
11955 0.1923527041008079 1.6421922484928222 2.6176597986560317 97 113 52 0.27367468076936718 76 428 52 284 41 133
11957 0.98539243851527658 1.4078338227426588 3.4496401158127203 87 149 76 2.1764756214511625 76 423 52 324
11958 -0.18726357362712526 0.90564509892254574 2.5891155106287274 83 133 67 0.14090748478370718 61 492 52 341
11962 -0.073916013051619045 0.40590724621348423 2.7639195250786384 210 200 114 0.2269538219084796 43 1107 52 363 67 221
11963 -0.10747396299926001 0.41728876108092339 2.7544532415926901 211 197 116 0.26215034161136397 43 1109 52 366 19 313
11964 0.92985562715467096 1.232006295383655 3.5337050326359321 95 136 68 0.63172387603008306 76 417 52 374
11965 -0.3538347625604788 1.0243408632113922 2.5753880075223692 104 143 75 0.069550269773494711 33 352 52 377
11966 -0.39472294263096486 0.84600896863888342 2.6161514387525613 87 132 64 0.17697520953701221 95 432 52 400
11969 0.26395985797375182 1.0765516663930152 3.1620591194351806 83 131 61 0.7209742645557724 65 483 52 420
11970 -0.31636526541351806 0.32426671157320247 2.8148102686613328 62 106 43 0.34198699484788564 33 527 52 436 41 416 9 349
11971 -0.36075037144263239 0.49757416178321356 2.7300441863197986 150 155 86 0.053206281497382137 55 534 52 437
11972 0.13586905682475808 1.0239558222374809 3.1708482419396287 253 244 149 0.094382324211931129 65 507 52 443
11973 0.24243297380208717 1.0335385221858544 3.3172632513947415 110 124 66 0.46933018274612071 85 579 52 444
11975 -0.57500938495479925 1.0094173063062841 2.6092277184956809 81 126 62 0.25232191817149269 34 509 52 450
11977 -0.58977490258615017 0.92191240395335661 2.6249217677463696 77 121 57 0.20727557020008519 49 630 52 466 78 52 31 126
11978 -0.46793800058799007 1.4208972568771783 2.5977511755848175 0 0 0 0.052244929446889979 83 382 100 633
11981 -0.54501822088509866 0.54313554574460832 2.7287195758191416 75 120 50 0.23170761856130473 33 548 52 488 19 893 41 853 9 682 94 632
11982 -0.59565442769897581 0.56486734417825124 2.7322475802150827 70 109 46 0.2115951401442458 33 556 52 490 41 449 9 337 94 294 19 417 36 309
11983 -0.59541834176750807 0.56531102899984376 2.7328558792366109 70 109 46 0.19667858856756867 33 555 52 491 41 448 9 336 94 293 36 308
11984 -0.712379820801611 1.039053332838189 2.6341516693343752 71 117 53 0.10151934773853791 55 687 52 497
11985 -0.70015254282383932 1.1004092136172692 2.6272591848465443 84 144 66 0.028125988883932668 77 704 52 499
11987 -0.62002977019648897 0.58002856047824158 2.7319045367694446 192 169 100 0.32283420476115066 33 573 52 510 9 359 25 107 36 310
11988 -0.79146755655009216 0.67427772593072843 2.6205257271219935 112 88 62 0.24167423457701095 18 378 33 576 52 514 19 423 41 454 9 343 94 637 96 678 22 634 99 470 56 111 4 99
11989 -0.79146755655009216 0.67427772593072843 2.6205257271219935 112 88 62 0.24167423457701095 18 379 33 577 52 515 19 424 41 455 9 344 94 638 96 679 22 635 99 471 56 112 4 98
11990 -0.75666424181416314 1.09496267703511 2.6466458705258424 251 232 145 0.33468730032913807 82 746 52 523
11991 -0.85214704729743151 0.92941794634314201 2.7114906254598017 54 85 36 0.060992950678824688 49 718 52 559
11992 -0.85214704729743151 0.92941794634314201 2.7114906254598017 54 85 36 0.060992950678824688 49 719 52 560
11993 -0.8505468416837767 0.93892114850543318 2.7071320497986564 149 139 80 0.10585237645249322 65 560 52 561
11996 -0.88395422972199267 1.0686100098476545 2.6924621059446805 226 215 134 0.080520537707657464 49 724 52 567
11997 0.44040691044686381 0.36018504963464049 1.6944071201056405 88 85 83 0.21440740758811713 65 719 52 634 19 581
11998 -0.66061926519681391 0.17398787672660718 3.2982974384227095 0 0 0 2.0902238663904855 39 167 75 682
12000 -0.14597289654202597 0.082856725442256807 1.8822328392473135 40 71 32 0.067633866685927913 20 70 52 679 19 622 65 766
12001 -0.105896234217526 0.11845204803508108 1.861385928525658 190 185 135 0.0056123532669578331 76 847 52 681
12004 0.24117309421807243 0.94014946336312244 2.923349647141456 0 0 0 2.9743633408499459 8 293 46 343
12006 -0.12173562981610125 0.17308462791479867 1.9536144375636757 53 95 44 0.078972571214635551 27 89 52 702
12007 0.32013184405958789 1.1593719201856034 2.2036874189183955 156 135 104 0.23129304251418348 33 90 52 716 19 662 96 563 18 227 22 77
12008 0.28727233928089752 1.194032267299314 2.1360286431166067 245 223 174 0.15718280068031945 33 684 52 717 19 131 41 84
12010 -0.19195538017017344 0.11800721776480089 2.1040593795440454 91 103 68 0.12317475041664029 93 165 52 741 19 149 71 74 96 80 22 52
12011 -0.19689680581412447 0.1135691331243766 2.1492080109572287 35 74 39 0.38162506412039926 33 846 52 750 19 157 13 76
12013 0.53264352706961948 0.84281107229111707 2.7377116863504405 44 60 23 1.7591138594288818 76 986 52 776 22 145
12014 0.3419402087004012 1.0005737753634123 2.6459978171369811 209 210 138 0.14537999309548386 76 1484 52 780 19 726
12016 -0.33271648050792535 0.14599900958253142 2.3663448296242784 130 125 124 0.27312598022332202 33 910 52 832 19 755 41 1038
12017 -0.5987369828249256 0.50084564273226051 2.2155855133590823 97 180 82 0.21852240830965042 65 879 52 835 41 716
12018 -0.56230300616484863 0.36248105697701311 2.2875109884493963 67 114 44 0.237180593221337 65 292 52 847 19 757 41 296 9 243 94 544
12020 0.53075702143498238 1.2496637556934465 3.1476588734958622 94 153 77 0.88050261574329924 65 1015 52 859
12022 -0.29243355617448441 1.288640551176927 2.5530030858357757 229 225 143 0.41048800475751246 76 1587 52 863
12025 -0.24515333306293891 0.84031167022691067 2.6045159103537081 197 182 112 0.0050782427158845332 76 1102 52 881
12026 0.76903470294243426 1.4845501448779272 3.4552686899963443 87 144 68 1.342794952987624 76 1124 52 887
12027 0.34707976354882603 1.5319256384376414 3.2022795573585814 90 161 74 0.088473970395037835 77 1316 52 904
12028 -0.39800543768507735 1.2688435850288164 2.5652388292027668 102 179 83 0.075525024413670788 65 985 52 906
12034 -0.56763836135897283 0.80614052151592408 2.6507918416139495 243 224 136 0.095426432185694077 33 968 52 962
12036 -0.65043146062867629 0.99931431660496073 2.6253977624354503 118 155 73 0.041665632248613915 83 228 52 965
12037 0.40143011176430438 1.4299125902714991 3.4861471788764526 83 135 62 3.0853326405888861 76 1186 52 967
12041 0.20915917148130653 0.77876566670905811 3.4584278465063005 192 170 100 1.9053385845278896 77 1189 52 980
12044 -0.77253595681349552 1.2509611897517896 2.6786508008381467 88 158 65 0.43059611689477045 33 525 43 1763 52 1003
